# .PCD v0.7 - Point Cloud Data file format
VERSION 0.7
FIELDS x y z
SIZE 4 4 4
TYPE F F F
COUNT 1 1 1
WIDTH 1449
HEIGHT 1
VIEWPOINT 0 0 0 1 0 0 0
POINTS 1449
DATA ascii
-10.473715 0.32465491 -0.51119459
-10.371497 0.31112733 -0.54493934
-9.0143833 0.21716172 -0.40267926
6.7538948 0.22090626 -0.5674327
6.905931 0.26702487 -0.51610023
7.1388001 0.33203435 -0.46643358
7.2484527 0.3712357 -0.50966662
10.856613 0.39619681 -0.42114449
-10.470863 0.50341505 -0.50666016
-10.382874 0.46292233 -0.4642773
7.2722459 0.44737479 -0.58327597
7.5631886 0.41881752 -0.53930324
7.6773696 0.46547022 -0.54762816
10.887726 0.52959925 -0.46925485
-10.44058 0.69578338 -0.49809095
10.893012 0.69638246 -0.49193841
-10.449435 0.89818603 -0.49928743
10.88912 0.89275914 -0.48780444
-10.484607 1.0999795 -0.50046557
10.894871 1.0921838 -0.48486412
-10.473665 1.3019629 -0.50390869
-10.031504 1.3937687 -0.5719099
-9.8209848 1.3994826 -0.56018305
10.877827 1.3069676 -0.4891482
-10.490898 1.4725127 -0.4677771
-10.246261 1.4673828 -0.52289999
-10.054729 1.4991028 -0.4539845
-9.8207636 1.5084858 -0.5120216
-9.7970753 1.5780065 -0.50130588
10.896993 1.4971008 -0.49613842
-9.8123341 1.6929239 -0.49944502
-9.7969408 1.7163376 -0.52220565
10.918604 1.7050315 -0.49773934
-9.8074427 1.8899517 -0.49416974
-9.7946281 1.9249338 -0.52424711
10.924529 1.9040697 -0.49514148
13.574359 1.9778661 -0.53177625
-9.8092251 2.1083491 -0.50122833
-9.7907104 2.0796497 -0.51576036
10.9326 2.0975924 -0.49235323
13.579232 2.0270066 -0.53224111
-9.8089638 2.2492671 -0.47889584
-9.7970791 2.2042742 -0.44845247
10.937624 2.297159 -0.49430177
11.00132 2.3886213 -0.56871176
-10.570416 2.5368788 -0.49946383
10.959258 2.5005822 -0.50697899
11.014638 2.5267353 -0.50466514
-10.551919 2.6922657 -0.48614982
-10.244514 2.741214 -0.53600329
-10.079377 2.7347796 -0.52784324
-9.8903055 2.728415 -0.51847529
-9.7198429 2.7435908 -0.52542812
10.914576 2.65923 -0.47323745
11.02802 2.6048818 -0.43927321
12.24145 2.6131685 -0.41086614
-10.495531 2.8111742 -0.45317084
-10.316381 2.8241789 -0.41463673
-10.095521 2.8204784 -0.4063471
-9.7081299 2.9024704 -0.51569927
-9.6710529 3.0840034 -0.51739222
-9.4871435 3.1463709 -0.46994257
-9.3886127 3.180613 -0.47174454
-9.6531086 3.2129779 -0.5745033
-9.4828491 3.2710922 -0.52715898
-9.3812628 3.2944341 -0.51166099
-9.7068338 3.5129139 -0.43053845
-9.4016581 3.4423773 -0.56536996
-9.385006 3.4400525 -0.53475058
-10.5465 3.9308357 -0.50850499
-10.539716 4.1122165 -0.50509346
-10.534498 4.3097124 -0.50815541
16.449478 4.348186 -0.52509648
-10.530061 4.5011697 -0.51126677
16.475382 4.5025764 -0.51036447
-10.501732 4.7092919 -0.51795727
16.473999 4.7043519 -0.51913238
-10.426243 4.8862824 -0.50278014
-10.398186 4.9186296 -0.54746443
16.474361 4.9065757 -0.51366353
-10.408619 5.1020489 -0.4948315
-10.387486 5.0726781 -0.54332888
16.487654 5.1142125 -0.50860268
-10.426902 5.3129287 -0.52246112
-10.393795 5.273891 -0.54326987
16.49361 5.3329248 -0.54345024
-10.435146 5.4940109 -0.51264262
-10.399749 5.5180111 -0.59474576
16.496386 5.5676785 -0.57148582
-10.448294 5.6886559 -0.51712525
-9.2622395 5.7003736 -0.42160934
-9.1532021 5.7407413 -0.45072564
-0.48957476 5.7560086 -0.55717856
16.525568 5.6783886 -0.50493157
-10.431655 5.9008751 -0.49990052
-9.4184599 5.9334326 -0.43152589
-9.2447233 5.8503036 -0.53129762
-9.1589708 5.8607869 -0.51745415
-0.47925267 5.849196 -0.45615205
-10.421172 6.0884871 -0.50341755
-9.4190855 6.0933137 -0.49153778
-9.3281107 6.092977 -0.56285918
-0.41879201 6.1194406 -0.49106202
-10.434961 6.2516894 -0.5289284
-10.328219 6.2791905 -0.49709591
-9.5500231 6.2755818 -0.44299194
-9.3921528 6.2283235 -0.56931722
-8.3080006 6.3526268 -0.42085296
-0.41671616 6.2922211 -0.52409035
-10.291705 6.4010363 -0.54124802
-9.8113356 6.4964442 -0.45616239
-9.7066145 6.5842304 -0.59252578
-9.4853525 6.5039048 -0.49671012
-9.3126307 6.519474 -0.4742029
-9.100812 6.5181665 -0.46228009
-8.8885574 6.5280914 -0.46010783
-8.6982756 6.529614 -0.45377326
-8.3017826 6.5078568 -0.53324604
-0.4158335 6.4425316 -0.45320776
-10.312134 6.7062125 -0.42814776
-9.7231493 6.6451249 -0.59494758
-9.4201889 6.6575193 -0.5827378
-9.2639589 6.6689687 -0.57664984
-9.0915642 6.6661587 -0.56951904
-8.8934345 6.6649904 -0.56144643
-8.6547108 6.71772 -0.4784691
-8.5768661 6.6805053 -0.51736492
-0.41281918 6.6843572 -0.50813121
-10.292701 6.883605 -0.52379894
-10.192842 6.9036655 -0.47723511
-8.6212397 6.9099746 -0.48737729
-0.39236057 6.8571296 -0.57014561
-10.261602 7.0209432 -0.55525661
-8.6153431 7.081882 -0.4833349
-8.5955849 7.0984154 -0.56316185
-8.6152096 7.2788076 -0.49688548
-8.5973186 7.3265023 -0.5264771
-8.6156502 7.4854231 -0.45586857
-8.5888062 7.505517 -0.54751623
-8.6052313 7.6535516 -0.51423204
-8.5870619 7.7013001 -0.53757912
-8.5594501 7.8309212 -0.58606774
-0.44752002 8.3713293 -0.55970073
-0.37076488 8.3800287 -0.55588651
8.3112173 8.3644228 -0.59568757
8.5939922 8.3923836 -0.53642982
8.762269 8.3792601 -0.54142648
8.8626375 8.3867798 -0.54490632
-9.4155855 8.4348106 -0.4149341
-9.3085508 8.5301046 -0.45744342
-9.1041861 8.5289927 -0.44666764
-8.8870344 8.5316019 -0.44107494
-8.6971588 8.567543 -0.45515776
-8.4076147 8.4990902 -0.46344486
-8.2547731 8.4872932 -0.49393612
-0.46572948 8.4489231 -0.46751863
-0.38361794 8.4622917 -0.46802086
5.8886256 8.5860109 -0.58792162
6.1191645 8.5854721 -0.58275139
6.299943 8.5822611 -0.55052531
6.4912329 8.5671177 -0.5430007
6.6954165 8.5677948 -0.52194554
6.9049835 8.5576372 -0.53131068
7.1031938 8.534132 -0.51523322
7.3081784 8.5267439 -0.50856334
7.50038 8.5343847 -0.50100636
7.7040052 8.4983187 -0.51712382
7.8961501 8.4780207 -0.51092678
8.1146221 8.4775686 -0.51757264
8.2983799 8.4769526 -0.50955552
8.493659 8.4654541 -0.50010204
8.6698704 8.4324722 -0.50449568
8.9778728 8.4072247 -0.54927844
-9.4064436 8.6739368 -0.5714066
-9.2926369 8.690712 -0.56819445
-9.0956812 8.6858015 -0.56165117
-8.915513 8.6941137 -0.55611914
-8.7095032 8.7031898 -0.54985839
-8.5424156 8.6792316 -0.48971665
3.2927094 8.7684679 -0.58387345
3.4939609 8.7884312 -0.58955586
3.715754 8.787179 -0.5665918
3.8868122 8.7565641 -0.55954254
4.0825214 8.7647924 -0.55210567
4.3205976 8.7665329 -0.53015226
4.5018334 8.737998 -0.50572312
4.6847296 8.7348127 -0.50546622
4.9004288 8.7394285 -0.50635898
5.1120982 8.7076359 -0.5102343
5.3069739 8.6901455 -0.51462126
5.5006618 8.7149515 -0.48689789
5.6954923 8.6818991 -0.49680445
5.9048581 8.671936 -0.47598979
6.0938029 8.6610374 -0.48223704
6.3007469 8.6652136 -0.46249297
6.4982467 8.6467562 -0.44656876
6.690238 8.6465254 -0.44217673
6.8972511 8.6324482 -0.44132653
7.0804396 8.6166401 -0.43233937
7.2762794 8.6056862 -0.43687153
-8.5684462 8.9052677 -0.45144868
-0.35990033 8.8834553 -0.55421734
-0.034525905 8.992465 -0.56056333
0.043848429 8.9744368 -0.55944341
0.70353842 8.9793501 -0.56146991
0.90853834 8.9744596 -0.56230539
1.0999547 8.9838514 -0.56421328
1.2915204 8.9845343 -0.56583089
1.5187553 8.9706135 -0.55113965
1.6994158 8.9543705 -0.53511894
1.8965666 8.9524002 -0.53725243
2.1070821 8.9566317 -0.54019994
2.3110108 8.9573879 -0.51335686
2.496393 8.9176893 -0.50198555
2.7049341 8.9276905 -0.49871263
2.9095232 8.9249353 -0.50189096
3.101733 8.8797102 -0.50298387
3.2895176 8.8680525 -0.48146605
3.4984107 8.8851786 -0.48844001
3.6819525 8.8672142 -0.4813793
3.8927603 8.8361921 -0.46898293
4.1021023 8.8409815 -0.46056223
4.2853069 8.8258848 -0.47005951
4.4756427 8.8219509 -0.45625383
4.740664 8.8117352 -0.4468464
-8.566371 9.1071453 -0.49178404
-0.34385026 9.1596193 -0.49033046
-0.020507973 9.0446301 -0.47044843
0.10330669 9.0775785 -0.47401473
0.29803097 9.0748558 -0.48651946
0.50295222 9.0546942 -0.48385352
0.7003932 9.074688 -0.45989874
0.89812791 9.0779181 -0.46378905
1.1003616 9.0766697 -0.45918921
1.3022331 9.0610399 -0.46260643
1.4896464 9.0331507 -0.45594299
1.7013718 9.040267 -0.43525046
1.8966446 9.046958 -0.43736696
2.089401 9.0392942 -0.44144645
2.2661099 9.0274506 -0.42472896
2.4946487 9.0076208 -0.41740164
-10.436727 9.3087273 -0.50068665
-8.5538902 9.2970076 -0.48950142
-10.422706 9.4209433 -0.54463679
-8.5503521 9.490015 -0.49496284
-8.5472794 9.6828375 -0.50052285
-0.24661064 9.7548285 -0.45867434
-0.16678551 9.7514753 -0.46416843
-8.5396585 9.8515854 -0.58223277
-0.26182085 9.8186064 -0.54004222
-0.1137176 9.9000616 -0.49205002
-0.10221277 10.101374 -0.57044405
-0.33774212 10.289203 -0.52021915
-10.176257 11.494283 -0.41352963
-10.180277 11.676159 -0.46277478
-10.211987 11.874069 -0.45249781
-10.178021 11.928279 -0.483843
-10.221407 12.101879 -0.47324577
-10.192 12.124846 -0.51991427
-10.224345 12.27941 -0.47750258
-10.244188 12.478292 -0.48247814
-10.255556 12.696253 -0.47799414
-10.334674 12.922873 -0.54314119
-1.2987865 12.970785 -0.58214945
-10.329789 13.08852 -0.49822485
-10.165499 13.081693 -0.54379725
-1.4336988 13.049012 -0.4698227
-1.3177409 13.043556 -0.46920711
-10.337791 13.345157 -0.48792008
-1.4661402 13.237782 -0.59478396
-10.344262 13.515134 -0.49182644
-10.3361 13.69973 -0.52285093
-10.298699 13.921985 -0.50725263
-10.114192 13.943434 -0.52478123
-9.9049215 13.946049 -0.51102537
-9.67241 13.925323 -0.50655681
-9.5114613 13.922391 -0.5203014
-3.4083102 13.992051 -0.55827212
-3.2691765 13.985394 -0.55677432
-3.0961087 13.977047 -0.55496663
-2.9100425 13.978086 -0.53650808
-2.7107711 13.958426 -0.55122209
-2.4886544 13.95948 -0.52155292
-2.3072286 13.955972 -0.51226515
-2.1022019 13.949282 -0.50488168
-1.901263 13.935726 -0.50338227
-1.7014669 13.917232 -0.50181127
-1.577215 13.907829 -0.50094986
-10.290272 14.003378 -0.46810201
-9.4722996 14.080594 -0.49703819
-6.4367995 14.157 -0.5104661
-6.2900081 14.117803 -0.53807276
-6.0877194 14.155823 -0.55149102
-5.9148564 14.161798 -0.54928309
-5.7048998 14.141163 -0.54577285
-5.5042663 14.140653 -0.54307479
-5.2882552 14.128922 -0.52506715
-5.0909843 14.134934 -0.50436324
-4.8962269 14.124055 -0.49075016
-4.7022791 14.119067 -0.4885594
-4.5202913 14.095738 -0.5034374
-4.2908311 14.060781 -0.52613157
-4.1000915 14.048416 -0.52379376
-3.9154258 14.051675 -0.52206248
-3.703198 14.045539 -0.5198729
-3.501404 14.034324 -0.51155972
-3.3071892 14.034012 -0.49465752
-3.1204145 14.017029 -0.47136098
-2.9241016 14.01707 -0.47000495
-2.7124336 14.019211 -0.46870366
-2.5572219 14.008817 -0.46742421
-2.2806747 14.003858 -0.46571827
-9.4505339 14.29736 -0.53732002
-9.2867002 14.382388 -0.56195015
-9.0694389 14.374042 -0.55788207
-8.8861532 14.35977 -0.5542953
-8.703124 14.34216 -0.55066472
-8.4920387 14.330451 -0.54677176
-8.3003569 14.355705 -0.50515705
-8.0666523 14.341672 -0.5013153
-7.8775392 14.33994 -0.48881009
-7.6763787 14.326266 -0.48556098
-7.4815717 14.32003 -0.48267975
-7.2818389 14.301589 -0.47945416
-7.0900397 14.292085 -0.47664246
-6.8984375 14.280532 -0.47381899
-6.7107754 14.2718 -0.47115704
-6.5479598 14.24613 -0.46840149
-6.2994924 14.240195 -0.44995677
-6.0850806 14.252307 -0.41744304
-5.9053531 14.242618 -0.41532478
-5.6990128 14.23381 -0.41300899
-5.4885044 14.211394 -0.41037014
-5.3202415 14.216907 -0.40889812
-5.1509933 14.213965 -0.40724659
-9.4569359 14.440674 -0.46497846
-9.28304 14.448569 -0.46260884
-9.0979576 14.436062 -0.45964688
-8.9208641 14.432635 -0.45704392
-8.7030735 14.415744 -0.45359722
-8.494812 14.409625 -0.4505814
-8.2207165 14.400766 -0.44666797
-8.1546383 14.401535 -0.44580629
-0.82456595 -1.0141323 -0.21820699
-0.68631458 -1.0295854 -0.21847594
-0.49899045 -1.040112 -0.23547886
-0.29736719 -1.036009 -0.23118983
-0.098694853 -1.0438796 -0.22995448
0.10627055 -1.0471996 -0.22988468
0.29353338 -1.0445373 -0.22806767
0.46126291 -1.0155898 -0.21363442
0.70601052 -1.012146 -0.20604227
0.85755163 -1.0072888 -0.20941499
-7.1029043 -0.80299455 -0.23463067
-1.2392044 -0.83008522 -0.23893377
-1.1021934 -0.87386674 -0.25961816
-0.89657253 -0.90237027 -0.26869935
-0.705639 -0.9349761 -0.29555905
-0.51090181 -0.94856459 -0.31016961
-0.30411354 -0.94986862 -0.3018114
-0.09897323 -0.91456008 -0.33012348
0.094403796 -0.91990697 -0.32268825
0.30382779 -0.93116933 -0.29762962
0.50595587 -0.93892622 -0.26620182
0.69748855 -0.9250533 -0.26536492
0.90074366 -0.90112561 -0.26076391
1.1050271 -0.88995582 -0.27402234
1.2436545 -0.88701862 -0.2600244
-7.651453 -0.73001242 -0.38829008
-7.5082197 -0.77854764 -0.33709776
-7.3432269 -0.66895413 -0.26751447
-7.1173248 -0.69459122 -0.30940518
-1.4239185 -0.7188834 -0.22251996
-1.311193 -0.69861919 -0.29120961
-1.1414427 -0.76701647 -0.3275646
-0.82856452 -0.79076844 -0.39620826
-0.79822707 -0.7841416 -0.38705492
0.28869197 -0.78325397 -0.3917996
0.74664539 -0.78574699 -0.3750684
0.8362937 -0.75326115 -0.38940865
1.1649412 -0.78753483 -0.350454
5.9272738 -0.63519984 -0.28349227
6.096251 -0.63566107 -0.23743832
-10.566259 -0.48631796 -0.28488699
-7.3297062 -0.51383835 -0.29631594
-7.1751251 -0.58359838 -0.36366877
-4.4619884 -0.44272926 -0.2532241
-4.298151 -0.44292814 -0.25244126
-4.1258273 -0.42781821 -0.25856838
-2.0181503 -0.40399888 -0.20119077
-1.8762933 -0.42451611 -0.25891313
-1.6936399 -0.45965856 -0.3389231
-1.4938151 -0.49960768 -0.31635943
-1.3691576 -0.54049903 -0.26962373
1.9532145 -0.41405582 -0.27810559
2.0351591 -0.41047859 -0.21820001
5.3563533 -0.51670152 -0.39913803
5.4736919 -0.53598505 -0.36453953
5.6731896 -0.52693039 -0.36863676
5.9118423 -0.55208701 -0.34014744
6.1355052 -0.52312762 -0.30812669
6.2671819 -0.46746683 -0.26321915
-10.504303 -0.3189899 -0.27339959
-8.7441854 -0.23385791 -0.35608578
-4.4917798 -0.38506818 -0.34321499
-4.2802296 -0.35821468 -0.3565886
-4.1264124 -0.3528589 -0.34405756
-3.8243537 -0.27984422 -0.38615078
-3.657095 -0.33284047 -0.30358207
-3.4662912 -0.31758982 -0.28515956
-3.3229918 -0.32199818 -0.28926975
-3.0317812 -0.32132769 -0.26201433
-2.8895888 -0.28239766 -0.28160664
-2.7265146 -0.29456574 -0.24401635
-2.4764018 -0.27999759 -0.24924822
-2.3006263 -0.29664919 -0.27082595
-2.1044135 -0.32900402 -0.27183288
-1.900062 -0.32838061 -0.32949769
-1.749621 -0.36956468 -0.3783823
1.9586389 -0.37481067 -0.35635626
2.0999846 -0.34962502 -0.26646674
2.2912641 -0.3047944 -0.2386032
2.49665 -0.28637654 -0.22995242
2.7062151 -0.26609212 -0.25236672
2.8150001 -0.25276098 -0.27616006
6.1864233 -0.34370881 -0.38623497
6.3130713 -0.33200487 -0.33301485
6.4653726 -0.26858917 -0.26748392
-10.450113 -0.18053654 -0.21984415
-8.8151178 -0.17233503 -0.23749769
-8.7153692 -0.13542928 -0.30334088
-8.5625286 -0.057801086 -0.32002985
-2.9018252 -0.19731833 -0.37026924
-2.7297187 -0.17604434 -0.39666134
-2.457895 -0.184339 -0.36269689
-2.3069229 -0.19110882 -0.38684884
-2.158062 -0.19598822 -0.39134008
6.5408816 -0.1279159 -0.32888028
6.6777177 -0.079612151 -0.26261514
6.80831 -0.01782419 -0.22347654
-8.8682251 0.14024812 -0.33795848
-8.6989193 0.066666931 -0.28919682
6.5774755 0.021825721 -0.37142572
6.7335534 0.045513362 -0.35622194
6.8798895 0.092897907 -0.30264607
7.0805054 0.16592997 -0.26042131
7.4586678 0.19791766 -0.20098443
-10.485503 0.37715089 -0.32392719
-9.0231256 0.26466379 -0.29647645
-8.9791059 0.21629077 -0.29503551
6.9517722 0.22945513 -0.39277461
7.1100388 0.24308263 -0.34739766
7.2784867 0.26301447 -0.31612676
7.5117178 0.26020542 -0.29083258
7.7658825 0.31462541 -0.34709114
10.84475 0.3475574 -0.26478943
-10.47954 0.49655518 -0.27637237
-10.391211 0.49261221 -0.2924127
10.85365 0.50270098 -0.29264602
-10.479078 0.69843173 -0.28279349
10.875898 0.70080417 -0.2935552
-10.461884 0.89942008 -0.2828103
10.886983 0.89258009 -0.2941955
-10.479164 1.0920441 -0.28379604
10.891829 1.0977859 -0.29483438
-10.501625 1.2977557 -0.28494939
10.88868 1.3083023 -0.29538676
-10.501708 1.4972179 -0.28573009
-10.277378 1.5818383 -0.34131679
-9.8656845 1.556463 -0.36348492
10.867451 1.5054352 -0.29547894
-10.498178 1.6501112 -0.24445009
-10.064583 1.6084816 -0.27454948
-9.8274956 1.7016205 -0.303417
-9.7908945 1.740497 -0.26787153
10.897714 1.7040458 -0.29708117
-9.8184032 1.9058834 -0.29896638
-9.7904196 1.9172531 -0.2687332
10.920943 1.9034504 -0.29856652
-9.8149662 2.0992765 -0.30002004
-9.7984829 2.1453726 -0.32924405
10.922442 2.1007664 -0.29959735
-9.8166132 2.2968528 -0.2885901
-9.7931566 2.267606 -0.29049662
10.9246 2.297256 -0.29598549
-10.54755 2.5615377 -0.35627645
-9.810955 2.447983 -0.21269406
10.934306 2.5074403 -0.30684656
-10.57419 2.7071555 -0.3038345
-9.6384315 2.7352247 -0.21074532
-9.4543409 2.7843013 -0.20731047
-9.2528162 2.7847819 -0.31717134
10.935226 2.7091539 -0.30816144
11.188027 2.6839418 -0.24200942
-10.555807 2.8652422 -0.28162822
-10.297538 2.8778741 -0.319511
-10.06571 2.8388252 -0.34328514
-9.8478518 2.8200738 -0.33650389
-9.712698 2.8792055 -0.37033129
-9.4488163 2.8933847 -0.26624581
-9.343524 2.8807611 -0.27497977
10.907121 2.8357651 -0.2903094
-9.6923571 3.1079159 -0.2737515
-9.4344053 3.0843809 -0.34072223
-9.3948479 3.0489566 -0.32442173
-9.708415 3.3133309 -0.28387493
-9.4115934 3.2241454 -0.38566175
-9.7019567 3.4912102 -0.28784809
-9.702075 3.6403186 -0.23835343
-10.564058 3.9670982 -0.35379225
-10.550973 4.1099691 -0.30016574
-10.549541 4.3004866 -0.3119581
16.48736 4.3838663 -0.35885024
-10.545071 4.500855 -0.30878553
16.465145 4.5086803 -0.31880522
-10.546914 4.6987948 -0.31094819
16.471024 4.6826491 -0.30969882
-10.489006 4.8940344 -0.31162238
16.479744 4.8891912 -0.30359963
-10.425311 5.1040373 -0.31752661
16.483139 5.1074286 -0.31934339
-10.431417 5.3093843 -0.30998054
16.485991 5.3153501 -0.31326106
-10.451014 5.5134201 -0.31824437
-9.2820721 5.4923038 -0.27476829
-9.1719589 5.5122681 -0.28829455
16.492643 5.5088272 -0.31448612
-10.454606 5.7033553 -0.32079515
-9.4401789 5.7323194 -0.25407177
-9.2387476 5.6282315 -0.35509545
16.487602 5.6997399 -0.31547725
-10.457626 5.8995056 -0.32928184
-10.373386 5.9433122 -0.25147277
-9.4393435 5.8893533 -0.34338591
-0.49129885 5.9401188 -0.3082962
16.519461 5.9116645 -0.36905667
-10.419312 6.0520625 -0.39551282
-10.364076 6.0746045 -0.33543035
-9.5403509 6.1092052 -0.26059291
-8.4117889 6.0913563 -0.21845619
-8.3126583 6.1224394 -0.25378931
-0.44866043 6.0631514 -0.28702411
16.622849 6.1324921 -0.26812887
-10.328852 6.3817196 -0.2553843
-9.475028 6.2976146 -0.33532795
-9.2931385 6.2768784 -0.29389217
-9.1036043 6.2911735 -0.29821822
-8.9076586 6.3109641 -0.3006064
-8.7118845 6.2805352 -0.2712324
-8.4878302 6.3349776 -0.30600482
-8.3208599 6.2361584 -0.34131676
-0.42742115 6.2458735 -0.27962369
-10.322568 6.5050454 -0.28548518
-9.8774834 6.4513388 -0.3872456
-9.7742987 6.4156284 -0.31494024
-8.6586266 6.5190296 -0.27773893
-0.42008343 6.4684715 -0.28972954
-10.292042 6.6441488 -0.29391414
-8.6399393 6.7056313 -0.29458049
-8.6339998 6.8963065 -0.29759425
-8.6312904 7.0933685 -0.30088058
-8.6243 7.2916942 -0.30418935
-8.6183071 7.4819832 -0.34781489
-8.5935011 7.457058 -0.37346697
-9.1203403 7.9348006 -0.26861933
-8.907548 7.9389992 -0.25098208
-8.6968689 7.9445906 -0.24777156
-8.5012264 7.9588923 -0.24495357
-8.3078661 7.9695635 -0.24215662
-9.1168308 8.0036936 -0.32678819
-8.2990742 8.1703081 -0.26211864
-9.4303398 8.3373966 -0.33906698
-9.3213167 8.3575487 -0.33723593
-9.0989466 8.3615198 -0.33287376
-8.8921318 8.3735495 -0.32901418
-8.6887379 8.3845129 -0.32525334
-8.2919626 8.3167191 -0.36834228
-8.6594734 8.4962044 -0.3982029
-8.5569496 8.4989805 -0.32477957
-0.46113366 8.54772 -0.32817802
-0.38039207 8.5410185 -0.33115163
7.8934269 8.5786772 -0.38265273
8.0793533 8.5584631 -0.38632703
8.3405256 8.5874472 -0.36471823
8.518631 8.5839605 -0.32576495
8.7432785 8.5679874 -0.32975018
8.9054356 8.5456877 -0.33246982
-8.5848894 8.7179708 -0.28833932
-0.49677792 8.6101589 -0.24247268
-0.37868303 8.7438545 -0.261619
5.1188731 8.7796602 -0.3939772
5.3030024 8.7820091 -0.37738052
5.7386651 8.7862482 -0.34446618
5.9074931 8.7672873 -0.33658931
6.0970821 8.7674894 -0.31904629
6.3041716 8.7589989 -0.32592872
6.5048285 8.7348814 -0.32892412
6.7042179 8.7383919 -0.29650587
6.9035058 8.7265863 -0.2995514
7.101933 8.709857 -0.30765778
7.3133678 8.6899967 -0.30060247
7.5033097 8.6629305 -0.31530553
7.6925983 8.6619425 -0.30623424
7.8900623 8.6547909 -0.29996505
8.0902586 8.6468143 -0.28398898
8.2809286 8.6350965 -0.27512541
8.5154762 8.6297321 -0.28363627
8.6532173 8.650074 -0.25736108
-8.5669794 8.9014978 -0.29631945
-0.35668114 8.8039961 -0.39348891
2.9543636 8.9698935 -0.33805808
3.0914757 8.9696026 -0.34269926
3.3052924 8.9782219 -0.37089017
3.5031126 8.9743357 -0.35711271
3.696075 8.9455414 -0.32542381
3.894963 8.9358969 -0.32359913
4.0927081 8.9473658 -0.32302371
4.2971416 8.9263172 -0.31055337
4.4998546 8.8919754 -0.30404925
4.7073083 8.8975582 -0.2959179
4.9064384 8.8903532 -0.30754396
5.0966468 8.8701715 -0.28538465
5.2937651 8.8582916 -0.28245583
5.4994407 8.8533459 -0.28059229
5.6929173 8.8591471 -0.2665458
5.8871326 8.8431435 -0.25125384
6.098084 8.8261585 -0.23615599
6.3113518 8.8206053 -0.24090889
6.5016079 8.8152218 -0.23040105
6.6594796 8.8022175 -0.23216753
-8.5777025 9.1020422 -0.29998606
-0.35813498 9.1764851 -0.31518486
-0.021335119 9.1603956 -0.33695471
0.10093549 9.1720343 -0.32832244
0.27883777 9.1564045 -0.34734812
0.49877167 9.1645927 -0.34896708
0.72328448 9.1772661 -0.33495408
0.90856838 9.1714468 -0.32534271
1.0947783 9.1622467 -0.30298814
1.2923346 9.1380167 -0.30588377
1.5007544 9.1366262 -0.30714577
1.7021722 9.1459627 -0.31225926
1.8966866 9.1486359 -0.30382892
2.0985515 9.1054449 -0.30682442
2.2978592 9.0715103 -0.30723107
2.5097103 9.0940075 -0.29363611
2.6979063 9.1002617 -0.28344321
2.8875637 9.0643549 -0.27949896
3.0884919 9.0512457 -0.24447718
3.2930965 9.054987 -0.26270133
3.4939942 9.0444498 -0.25385967
3.6884885 9.0296516 -0.23068605
3.8869183 9.0207272 -0.20661227
4.0766983 9.0244007 -0.20829466
4.2743535 9.0218859 -0.20999387
-8.5704842 9.2873831 -0.30311921
-0.036438618 9.2107038 -0.26617777
0.09348502 9.2313471 -0.24868144
0.29924744 9.2283669 -0.2733753
0.4936614 9.2335711 -0.27171636
0.68415982 9.2346106 -0.26756892
0.89223975 9.2245417 -0.25872427
1.4876224 9.2051725 -0.25117669
1.6362222 9.2043076 -0.25182295
-8.5630894 9.4611225 -0.31362858
-0.26331645 9.5415821 -0.22326784
-0.18174405 9.5521574 -0.2009595
-0.27050522 9.6467524 -0.30673459
-0.14339417 9.7030096 -0.29005268
-0.12146248 9.9098263 -0.30592835
-0.33944893 10.286671 -0.39898714
-10.208051 11.238183 -0.22975558
-10.175271 11.329917 -0.26035401
-10.18046 11.50219 -0.28682062
-10.18271 11.685141 -0.28034362
-10.207973 11.912932 -0.26832893
-10.18177 11.849958 -0.28246176
-10.213833 12.056543 -0.28568599
-10.181984 12.104362 -0.28597528
-10.215305 12.299314 -0.29855505
-10.234704 12.517799 -0.29243988
-10.264272 12.707179 -0.27945089
-10.250051 12.854963 -0.29723397
-10.337723 13.133789 -0.3186478
-1.4218646 13.145802 -0.33008191
-1.3131212 13.148014 -0.31682462
-10.339498 13.29735 -0.30462953
-1.4257829 13.231861 -0.2013993
-1.3088808 13.229836 -0.20118745
-10.34066 13.490971 -0.30742574
-10.332092 13.699414 -0.30016977
-10.325871 13.919129 -0.31336102
-1.8976899 13.998835 -0.38053483
-10.275058 14.106991 -0.31551352
-10.073921 14.119929 -0.30334884
-9.8854313 14.099958 -0.32149559
-9.6986523 14.108358 -0.29943296
-9.5079651 14.109485 -0.32438257
-6.319829 14.148045 -0.28014743
-4.4398699 14.1546 -0.39959928
-4.3042707 14.149025 -0.39837858
-4.1135993 14.140348 -0.39669114
-3.8842189 14.145782 -0.37779203
-3.69063 14.133924 -0.37617579
-3.4899223 14.159476 -0.34356922
-3.3045328 14.128502 -0.35404846
-3.1067286 14.124025 -0.34678632
-2.8942332 14.114747 -0.33123851
-2.6923714 14.121823 -0.31915575
-2.4751515 14.105093 -0.31795821
-2.2889643 14.115628 -0.29289731
-2.1019387 14.081496 -0.30689409
-1.9092206 14.085372 -0.29113552
-1.6996328 14.06673 -0.30421913
-1.5958914 14.11645 -0.21498731
-0.20603926 14.05288 -0.21268734
-9.459219 14.309131 -0.31025475
-7.2981715 14.391702 -0.33941883
-7.0812197 14.397221 -0.33748412
-6.9221196 14.391547 -0.3359139
-6.6932769 14.363516 -0.33332026
-6.5382857 14.353429 -0.33176404
-6.3108902 14.355989 -0.30663487
-6.1172824 14.363594 -0.28225091
-5.905756 14.349493 -0.28053343
-5.6953712 14.334697 -0.27885798
-5.5026903 14.327352 -0.27102488
-5.3019896 14.310006 -0.2823227
-5.1141629 14.306796 -0.2746537
-4.9105811 14.285409 -0.27310362
-4.7021561 14.293033 -0.26569968
-4.5061116 14.265359 -0.27679047
-4.2939463 14.248953 -0.2690388
-4.1042652 14.247405 -0.26805171
-3.9262865 14.244617 -0.26090017
-3.6955879 14.235357 -0.2596907
-3.483252 14.237305 -0.22181159
-3.298753 14.231626 -0.22108023
-3.1144865 14.224245 -0.22035898
-2.9106305 14.204394 -0.21942587
-2.6990895 14.216368 -0.21898201
-2.54212 14.206678 -0.21840702
-9.4411488 14.524895 -0.30302674
-9.2946243 14.539082 -0.36297208
-9.1042337 14.520729 -0.3605046
-8.9085531 14.554432 -0.3084904
-8.6910591 14.538764 -0.30619848
-8.4976406 14.538408 -0.29449517
-8.3029661 14.516282 -0.30237001
-8.0919294 14.498487 -0.30022225
-7.9075227 14.482882 -0.30806503
-7.7226505 14.481345 -0.29668391
-7.5226059 14.469169 -0.29483107
-7.3217802 14.454341 -0.28336841
-7.1206694 14.459435 -0.26292038
-6.8587837 14.439504 -0.26542574
-6.6901469 14.445438 -0.2409125
-6.5277739 14.423784 -0.239591
-6.2778044 14.40353 -0.23777524
-9.2893982 14.60937 -0.26199564
-9.1093187 14.606237 -0.26050264
-10.670599 -1.2167045 -0.067597918
-1.02888 -1.213921 -0.010924255
-0.88629067 -1.223572 -0.0185939
-0.70891285 -1.2346874 -0.029393056
-0.47806582 -1.2445587 -0.043399874
-0.30209613 -1.2648611 -0.061293073
-0.099123202 -1.2701033 -0.066983663
0.098897487 -1.2657901 -0.067480087
0.2953549 -1.2599514 -0.053642839
0.48706591 -1.2481624 -0.044846233
0.69410717 -1.2324735 -0.033810504
0.89520162 -1.2179061 -0.016099958
1.0797322 -1.217774 -0.019245256
1.2074773 -1.206821 -0.0077253329
-10.658968 -1.1630933 -0.11495066
-10.442115 -1.0984495 -0.066029057
-7.4800758 -1.0100166 -0.025293544
-7.1243472 -1.0126765 -0.024113983
-1.4233774 -1.0140332 -0.017557003
-1.2778599 -1.0237885 -0.046190467
-1.0992223 -1.0747269 -0.073186941
-0.90357602 -1.1082729 -0.10004808
-0.70051354 -1.1403848 -0.11296748
-0.50630426 -1.1419742 -0.11797663
-0.29409498 -1.1455263 -0.14891389
-0.10681333 -1.1424487 -0.15844931
0.10431807 -1.1470796 -0.16100356
0.30390811 -1.1439399 -0.13763183
0.50798261 -1.1381066 -0.1251885
0.70328188 -1.1362975 -0.11498292
0.89271879 -1.1262412 -0.10506458
1.0995508 -1.1060172 -0.10596354
1.2941904 -1.0971842 -0.07851126
1.4636751 -1.0541762 -0.046787251
-7.4820843 -0.90434748 -0.069383688
-7.3067002 -0.88183177 -0.098416142
-7.1379929 -0.88358653 -0.11195268
-1.6579369 -0.82960773 -0.025359193
-1.4798981 -0.88305867 -0.080362968
-1.3190414 -0.92998433 -0.13169758
-1.1231748 -0.94972026 -0.15141326
-0.95026791 -0.97762793 -0.19010946
0.51811808 -0.99532443 -0.19069023
0.71459013 -0.98744243 -0.19855961
0.89918447 -0.99323165 -0.19431239
1.1666814 -0.9707045 -0.18577003
1.2947749 -0.96466267 -0.16379073
1.5000985 -0.97765499 -0.080216162
1.6173035 -0.96132082 -0.02014528
-10.462669 -0.60144013 -0.035118751
-7.9303331 -0.79224604 -0.05006953
-7.7042398 -0.6049841 -0.025896728
-7.5120153 -0.66931731 -0.025273439
-7.3549352 -0.68429893 -0.13077274
-4.4345937 -0.62484848 -0.041320581
-4.3755074 -0.63864923 -0.027875464
-4.0956397 -0.62170386 -0.022077261
-2.0427241 -0.61994165 -0.013410208
-1.8959067 -0.67229187 -0.054731399
-1.7016593 -0.72021866 -0.091057763
-1.5271623 -0.7406795 -0.1450734
-1.3621138 -0.67199814 -0.18335643
6.1615181 -0.68255311 -0.15126155
6.3162799 -0.68949056 -0.083379686
6.4318762 -0.64177638 -0.035862237
-10.528787 -0.49390939 -0.097498521
-7.8735528 -0.46854749 -0.08222618
-7.730969 -0.52598369 -0.052070837
-7.5920057 -0.54686505 -0.07027901
-7.3395219 -0.51793337 -0.15064053
-4.436893 -0.52973616 -0.14673766
-4.3282423 -0.53546101 -0.1492728
-4.1107616 -0.56214905 -0.087248765
-3.9399338 -0.52218848 -0.12626313
-3.67922 -0.51184392 -0.10006138
-3.4890239 -0.46241429 -0.12652753
-3.3192317 -0.48955506 -0.07985048
-3.150558 -0.4008016 -0.1604421
-2.630342 -0.40896192 -0.081133164
-2.5003273 -0.42803279 -0.042638469
-2.2609918 -0.44578478 -0.049774252
-2.1005812 -0.49247834 -0.090207748
-1.9361943 -0.52151418 -0.12619038
-1.6681764 -0.45692605 -0.14143978
-1.4996043 -0.47676724 -0.14900126
-1.3768018 -0.52216411 -0.16917987
2.1063628 -0.41131255 -0.14527035
6.3437672 -0.51298583 -0.13999642
6.5008187 -0.49935493 -0.060139216
6.6124134 -0.42208672 -0.031932119
-10.606565 -0.30947044 -0.074595019
-10.547202 -0.3006807 -0.12074164
-7.327137 -0.38656306 -0.19764547
-3.4998157 -0.39813429 -0.19890557
-3.3595791 -0.39406574 -0.1910125
-2.8792758 -0.3693482 -0.17221507
-2.6717091 -0.37073973 -0.12912491
-2.5025182 -0.35154802 -0.15796402
-2.2768428 -0.37058094 -0.1483784
-2.1695161 -0.39052477 -0.18289576
-1.6265113 -0.39858183 -0.15635325
0.31979007 -0.21147984 -0.039694302
2.1524124 -0.37802655 -0.16404302
2.2796824 -0.34956789 -0.1301364
2.5011883 -0.33578116 -0.11570168
2.6881173 -0.32192475 -0.11074365
2.8521912 -0.29524848 -0.16192086
6.5411863 -0.3199791 -0.14928482
6.6701126 -0.28459334 -0.064871185
-10.478672 -0.12569003 -0.081379548
-8.8427143 -0.069451861 -0.13382234
-8.7410259 -0.043985818 -0.14509633
-0.28265986 -0.03116231 -0.13314402
0.29578766 -0.13267948 -0.040948443
0.44132388 -0.090966515 -0.075717591
6.7080226 -0.15587029 -0.1104375
6.8930111 -0.069518551 -0.10593997
7.0427194 -0.036158077 -0.044216402
-10.500424 0.13021992 -0.035190243
-8.8778763 0.032570943 -0.029750409
-8.6923122 0.098579429 -0.12874621
0.33481488 0.12810603 -0.02364723
0.40560311 0.1505544 -0.030143932
6.8928657 0.045683809 -0.13633803
7.0642829 0.10042174 -0.13193619
7.3039956 0.083653904 -0.084751025
7.449255 0.091672257 -0.046962455
7.9064102 0.16516382 -0.13513289
10.850384 0.17140013 -0.068302609
-10.509151 0.24030618 -0.035225984
-8.8866825 0.25659969 -0.16103059
-8.7489614 0.30555463 -0.09723489
0.23313344 0.24816668 -0.025417933
10.850786 0.30485585 -0.091757141
-10.407059 0.57273549 -0.15773
-8.7122831 0.45142642 -0.070361793
10.833904 0.50165272 -0.10020517
-10.474685 0.71028662 -0.10087297
10.781542 0.6953215 -0.036204483
10.859564 0.69974715 -0.10520432
-10.48039 0.90084261 -0.097122364
10.867618 0.89091998 -0.10074731
-10.480978 1.0981855 -0.093667053
10.872266 1.0894084 -0.10499787
-10.514732 1.3056371 -0.10180949
10.881054 1.3010283 -0.097459234
-10.509574 1.4982059 -0.098055914
10.878063 1.5068671 -0.10145255
-10.529248 1.6907215 -0.094333306
-10.074604 1.7246187 -0.12470771
-9.8608351 1.7604725 -0.10720442
10.863007 1.6985651 -0.10161724
-10.488301 1.813465 -0.035668321
-9.8389006 1.9033868 -0.092577472
10.895801 1.8990815 -0.10222145
-9.8265476 2.0967467 -0.092815466
10.903419 2.0971074 -0.10258756
-9.8235807 2.3008976 -0.089705378
10.917602 2.2981443 -0.10306391
-9.8241386 2.4579649 -0.093538538
-9.653368 2.5162759 -0.033429835
-9.4546709 2.5527883 -0.032817714
10.902753 2.4892621 -0.098637797
-10.601478 2.7911384 -0.16590096
-10.583007 2.7271123 -0.1653865
-10.126556 2.6341033 -0.096610554
-9.8594456 2.6261322 -0.1241758
-9.6493893 2.6365311 -0.12781748
-9.4506645 2.7055428 -0.0870355
10.918516 2.6890955 -0.10384779
11.044643 2.6006677 -0.17171143
-9.4496717 2.8579128 -0.12994741
10.926862 2.8926663 -0.097001888
-10.345454 3.0860209 -0.036177676
-10.133976 3.0808678 -0.035494067
-9.8135004 3.0209031 -0.034408335
-9.734787 3.1019368 -0.094351918
10.8972 3.0200126 -0.037893403
-9.7310772 3.2964165 -0.094926782
-9.7212973 3.5025606 -0.095437154
-9.7118025 3.6944418 -0.085806996
-10.561429 4.1361847 -0.12706284
16.384823 4.1216636 -0.15599503
-10.566861 4.2937369 -0.10538372
-10.603844 4.4814224 -0.038577013
-10.565698 4.5057597 -0.10608781
16.44495 4.5667701 -0.15758304
-10.561096 4.6972718 -0.11200842
16.455153 4.6889577 -0.10768508
-10.550614 4.9093704 -0.1117539
16.461386 4.8777213 -0.10804244
-10.486251 5.1007242 -0.10276155
-9.2878361 5.1715555 -0.03562364
16.471828 5.1005392 -0.10851125
-10.443053 5.294755 -0.1130743
-9.2778358 5.3183165 -0.11457424
-9.1846466 5.2821631 -0.11870304
16.464808 5.3196397 -0.10888752
-10.45585 5.5070047 -0.10384745
-9.4644156 5.4997091 -0.082781732
16.484365 5.5034561 -0.09910845
-10.457519 5.6884203 -0.13635948
-10.394011 5.7130694 -0.074689306
-9.6240978 5.626123 -0.037357237
-9.4885101 5.6761408 -0.12800369
-8.3650789 5.7944174 -0.034100041
16.482525 5.6954041 -0.099455371
-10.454519 5.830864 -0.18115345
-10.37944 5.8688941 -0.16289933
-9.5346231 5.9024386 -0.08484485
-9.2942553 5.9231973 -0.036932778
-9.114439 5.9437466 -0.036463629
-8.9282436 5.9572387 -0.035967678
-8.739068 5.9634652 -0.035453856
-8.4515638 5.9354496 -0.095354907
-8.3485317 5.9214706 -0.094697475
16.466677 5.8789744 -0.084301308
-10.381129 6.1418161 -0.040420078
-9.824625 6.1271892 -0.17522192
-9.489624 6.069345 -0.14394376
-9.3119001 6.0737743 -0.13550313
-9.1158381 6.0828633 -0.13355058
-8.8975725 6.0958786 -0.13146502
-8.699008 6.1243434 -0.098317623
-8.4929113 6.0982833 -0.096536689
-8.3210125 6.0344806 -0.15555108
-0.50385433 6.0870852 -0.11052807
-10.338317 6.3037753 -0.10407601
-8.6644449 6.3152413 -0.085042387
-0.43754116 6.302278 -0.095785424
-10.3015 6.4996748 -0.18433104
-8.6628609 6.4839478 -0.099987201
-0.42670465 6.5258217 -0.087810718
-8.6576014 6.6951065 -0.10109416
-8.6508226 6.9097457 -0.10227858
-8.6424627 7.0956922 -0.10933621
-8.6440754 7.251555 -0.14857154
-9.4714565 7.9503012 -0.041438788
-9.3113298 7.9485474 -0.098704129
-9.1270981 7.9356132 -0.097482502
-8.9062786 7.8969483 -0.11978866
-8.6819553 7.929873 -0.10069837
-8.4965601 7.9277 -0.11577365
-8.310627 7.908895 -0.10598085
-9.4828978 8.0362749 -0.11476812
-9.2722263 8.0260506 -0.11322934
-9.0837908 8.0308609 -0.11194908
-8.8685675 8.0076056 -0.11032412
-8.7376814 8.0010033 -0.10938855
-8.2951946 8.046504 -0.13410771
-8.5148802 8.3258705 -0.086443968
-8.6132355 8.5037279 -0.064283408
-8.594348 8.5376453 -0.14041412
-8.6046305 8.653615 -0.094747484
-8.5905085 8.734746 -0.12516348
-0.47290567 8.7094049 -0.10466934
-0.38403946 8.7184658 -0.13190669
6.958323 8.7949753 -0.16971408
7.1282339 8.7869453 -0.17122723
7.3322668 8.7847939 -0.17316405
7.4905205 8.7545757 -0.17436245
7.7011747 8.7424974 -0.16255547
7.9059377 8.7640247 -0.13877615
8.1088095 8.7518721 -0.14531191
8.3065281 8.7398729 -0.13797021
8.4922276 8.7331114 -0.11236566
8.7180567 8.7239761 -0.11387563
8.9150934 8.7058287 -0.11505125
-8.6069336 8.9037094 -0.065903969
-8.5904608 8.9083071 -0.14555575
-0.3880493 8.9235163 -0.029931365
4.515172 8.9824514 -0.15214145
4.6648688 8.9928293 -0.15331163
4.8915863 8.9899378 -0.15488529
5.1212225 8.9599943 -0.15618053
5.3042307 8.9565182 -0.13113308
5.5023217 8.9527779 -0.1357118
5.7056413 8.9633789 -0.12086797
5.9039402 8.9284182 -0.13383657
6.0984454 8.920783 -0.10422965
6.3064756 8.9171619 -0.096173868
6.5143604 8.9026756 -0.10677829
6.6980791 8.9001598 -0.096747011
6.876296 8.8728733 -0.098445304
7.08499 8.8550301 -0.097899511
7.2887349 8.8302355 -0.12816687
7.508307 8.8283596 -0.10700653
7.7225022 8.8169317 -0.10821909
7.8972569 8.8294411 -0.039696254
8.0668268 8.8310843 -0.04008162
8.2785406 8.8226461 -0.040542945
8.4961739 8.8255863 -0.0410523
-8.6058168 9.0730476 -0.041905697
-8.577919 9.11693 -0.1366969
-0.36704558 9.1786327 -0.19322059
1.9365747 9.1818657 -0.19738446
2.0967755 9.1680937 -0.1811346
2.2882645 9.1717787 -0.18287018
2.471673 9.1790581 -0.18587098
2.7481623 9.1677704 -0.14483802
2.9077966 9.1574984 -0.11698943
3.104522 9.1615782 -0.12096241
3.3126659 9.1596804 -0.1281729
3.5135794 9.149642 -0.1019589
3.6981602 9.1184597 -0.087134831
3.8971236 9.1129484 -0.095059521
4.1002884 9.118597 -0.092213973
4.3046679 9.0870047 -0.092727527
4.4930973 9.0561419 -0.078388408
4.7079468 9.0613976 -0.07924822
4.9030027 9.0561123 -0.085696891
5.0893612 9.0419912 -0.073527165
5.2788811 9.0325537 -0.052606825
5.4850187 9.0200834 -0.053082664
5.7206459 9.027914 -0.035815768
5.9075956 9.0241365 -0.036144167
6.0093942 9.0072994 -0.036284909
-8.5820532 9.2958555 -0.1616402
-0.36026907 9.2310753 -0.11249702
-0.042610824 9.318717 -0.10576844
0.093359604 9.327899 -0.12994292
0.29448006 9.3349247 -0.14457603
0.4958767 9.3371277 -0.1355128
0.6953299 9.3245277 -0.11584926
0.90084779 9.2915001 -0.11465011
1.1013167 9.2866869 -0.11363413
1.3049977 9.3038712 -0.11082064
1.5085411 9.3005486 -0.11457076
1.706498 9.2864351 -0.11486395
1.8975018 9.2550688 -0.10736769
2.1051593 9.2561226 -0.076393746
2.3121614 9.2623377 -0.084337451
2.5027609 9.2607489 -0.085172944
2.6987545 9.24088 -0.07748764
2.8897469 9.215312 -0.032364208
3.0928936 9.2230005 -0.042119186
3.2880354 9.2273283 -0.051982477
3.4776106 9.2289667 -0.033050053
-0.2681464 9.4744024 -0.083469063
-0.1809271 9.5684347 -0.088480271
0.13331774 9.4289322 -0.031600174
0.29994714 9.4209023 -0.052340116
0.47867289 9.4172745 -0.031598832
-0.35607418 9.9965143 -0.1513748
-0.11150831 9.982234 -0.15107217
-0.12513573 10.543198 -0.035333216
-10.248922 11.106873 -0.080398396
-10.23549 11.287052 -0.095886588
-10.226439 11.499235 -0.074224994
-10.192223 11.431469 -0.14140742
-10.221087 11.674519 -0.097557008
-10.192478 11.764439 -0.097944707
-10.228428 11.932755 -0.09882126
-10.233401 12.132913 -0.10918804
-10.248984 12.317348 -0.085120462
-10.256732 12.484672 -0.10157537
-10.268232 12.679182 -0.10257537
-10.282759 12.90072 -0.12814103
-10.321055 13.068948 -0.088648796
-10.377074 13.299617 -0.089576513
-1.439942 13.33422 -0.071160369
-1.3305908 13.322675 -0.084165156
-10.372485 13.494486 -0.11709569
-10.359739 13.696944 -0.10812081
-10.356511 13.891949 -0.10906034
-10.353992 14.094098 -0.11007627
-9.6521511 14.191999 -0.15846938
-9.5308266 14.17268 -0.15769383
-1.6720328 14.190499 -0.13192856
-1.565727 14.136952 -0.13132535
-0.22227234 14.149912 -0.088959821
-0.17737496 14.114284 -0.13032822
-10.296893 14.244413 -0.10017057
-10.087333 14.244903 -0.10973407
-9.8815546 14.24837 -0.09884534
-9.7185879 14.250443 -0.091610588
-9.5113468 14.283327 -0.097802535
-6.3480377 14.321806 -0.098491549
-4.902988 14.387769 -0.14034566
-4.7035079 14.373276 -0.13963474
-4.4899507 14.369392 -0.12127936
-4.2792249 14.36526 -0.10311349
-4.1119866 14.345688 -0.12018095
-3.9005959 14.351396 -0.093515143
-3.6868894 14.354097 -0.093161508
-3.4967592 14.3387 -0.09279871
-3.308327 14.323944 -0.092427477
-3.0965769 14.315965 -0.09208478
-2.8848238 14.300461 -0.091735825
-2.7017918 14.291785 -0.091454215
-2.5191426 14.281056 -0.091173723
-2.3104587 14.257041 -0.090792418
-2.1050045 14.246368 -0.090551689
-1.8998315 14.231294 -0.090273574
-1.7116406 14.235556 -0.06490276
-9.4924088 14.503321 -0.10898634
-8.0991459 14.599167 -0.15414849
-7.9313164 14.595521 -0.15337294
-7.7216592 14.573285 -0.15227734
-7.5230026 14.562863 -0.15134175
-7.3043337 14.568461 -0.11211725
-7.1012397 14.556394 -0.10187355
-6.895175 14.54627 -0.10799967
-6.6826611 14.526841 -0.10052058
-6.5189238 14.501747 -0.099922672
-6.3048253 14.496518 -0.099377416
-6.103076 14.487062 -0.092251666
-5.895072 14.471097 -0.10480474
-5.697216 14.461811 -0.09773767
-5.506115 14.461075 -0.090784431
-5.3045106 14.444877 -0.1032116
-5.0950022 14.431135 -0.089809045
-4.8806329 14.427341 -0.051038358
-4.7114964 14.423154 -0.050846234
-4.5425525 14.415752 -0.050649643
-4.3474002 14.40831 -0.050432943
-4.1019549 14.409338 -0.050205074
-9.474843 14.700743 -0.10995023
-9.3012419 14.711062 -0.10942928
-9.0987396 14.707907 -0.098563462
-8.9123354 14.676575 -0.11808433
-8.715045 14.674747 -0.10729507
-8.5039749 14.667976 -0.10655677
-8.2878466 14.646572 -0.10577773
-8.0692711 14.65044 -0.080540381
-7.8790851 14.634471 -0.080088541
-7.6840749 14.642029 -0.055412564
-7.4835677 14.630292 -0.055068526
-7.277575 14.602937 -0.054675341
-1.0241015 -1.4038789 0.14790563
-0.88382435 -1.4395437 0.13602357
-0.68871719 -1.4821051 0.13919218
-0.48159277 -1.46487 0.098455504
-0.29680228 -1.4530929 0.082949705
-0.11120652 -1.4570165 0.083686918
0.095450148 -1.4504057 0.081564397
0.29035509 -1.4658685 0.10227909
0.48522109 -1.4437377 0.11893019
0.75512594 -1.4417491 0.13856131
0.90120524 -1.4355454 0.14433822
1.1147001 -1.4364034 0.15480773
-10.439353 -1.224496 0.1506229
-10.080586 -1.313779 0.10061087
-1.4401922 -1.2078516 0.15999082
-1.2890017 -1.2489791 0.1401305
-1.0854572 -1.2570438 0.060841393
-0.90408373 -1.3036652 0.036854126
-0.70055288 -1.3281292 0.033363853
-0.50217676 -1.3230212 0.025321802
-0.300982 -1.3652184 0.020652594
-0.0942486 -1.3641794 0.021414293
0.10294729 -1.3509502 0.021449849
0.30311939 -1.3448974 0.025218647
0.50670975 -1.331 0.032450542
0.69280571 -1.3020253 0.038451344
0.88875842 -1.2882988 0.034642551
1.1076521 -1.2735597 0.039039064
1.3049603 -1.2612001 0.072143875
1.4749929 -1.2616476 0.12088164
1.6111853 -1.2145582 0.17173676
-10.684105 -1.1512353 0.027195167
-10.560679 -1.0820268 0.026866172
-10.051418 -1.1096652 0.12500398
-8.4084625 -1.1293982 0.021470666
-8.3965454 -1.157648 0.021450421
-7.4583616 -1.0708179 0.14679585
-7.2907639 -1.1548964 0.1817911
-7.1800227 -1.0830739 0.08271727
-1.6516666 -1.0211303 0.15682849
-1.4897399 -1.0588902 0.070251256
-1.2924826 -1.1042033 0.036272518
-1.1510088 -1.1684132 0.018733619
1.1916223 -1.1918098 0.016022593
1.3064957 -1.1872127 0.014118678
1.5118523 -1.1168613 0.035100799
1.6577433 -1.0619545 0.10168715
-8.1760597 -0.80887192 0.020792432
-7.7043877 -0.8202306 0.12222686
-7.4568467 -0.97972828 0.1742418
-7.2924562 -0.88505661 0.06204138
-7.1118751 -0.84768313 0.034964498
-4.4956083 -0.80802441 0.14641714
-2.0538721 -0.8139925 0.1880482
-1.8663839 -0.83854973 0.10846491
-1.6989855 -0.88615984 0.050410051
-1.5514137 -0.96393901 0.030663498
1.5986227 -0.99312437 0.0047628237
1.6790509 -0.95876336 0.046594497
1.8950574 -0.90355843 0.17880492
6.4986925 -0.83276296 0.13271564
-10.447753 -0.6145919 0.12935892
-10.39733 -0.67054206 0.14930466
-7.8485136 -0.68469936 0.084699534
-7.7117271 -0.70429486 0.11068981
-7.5107074 -0.66370618 0.019081663
-7.1718907 -0.7943182 0.060829733
-4.4729462 -0.73545414 0.08903221
-4.3882813 -0.69137645 0.037458405
-4.1128736 -0.66852838 0.040149003
-3.8937087 -0.67947596 0.080372632
-3.7305717 -0.71998924 0.13498482
-3.4773192 -0.65667111 0.095207535
-3.2842548 -0.63248813 0.082396269
-3.1626213 -0.62050802 0.07788647
-2.9231181 -0.62569332 0.12173156
-2.675355 -0.61701375 0.13658822
-2.5114007 -0.61157227 0.12858869
-2.2490811 -0.6220361 0.096017078
-2.0751414 -0.67560893 0.063407451
-1.9264619 -0.75641698 0.033883426
-1.7839301 -0.792377 0.0049399743
1.9852195 -0.79440677 0.18199855
6.3734193 -0.78817225 0.016252313
6.5079179 -0.71113443 0.075421199
6.6713228 -0.65889996 0.15696667
-10.476056 -0.4979642 0.084524952
-7.8451133 -0.51800519 0.089482337
-7.7329054 -0.54942769 0.052995726
-3.4698491 -0.57955706 0.019214746
-3.3061216 -0.57598931 0.018350536
-2.6897016 -0.53843182 0.07163804
-2.4771135 -0.50637895 0.046800662
-2.2812035 -0.53329533 0.038180619
-2.1671937 -0.57799828 0.022177543
2.3525007 -0.40973097 0.020130461
6.5495062 -0.56098825 0.024422804
6.7170873 -0.50129426 0.079100356
6.8491464 -0.47396132 0.16251522
-10.60321 -0.22117913 0.089400217
-10.555058 -0.32207936 0.093751475
2.3325851 -0.38406587 0.0059826327
2.4501872 -0.38281286 0.020906007
6.7234778 -0.30951908 0.036987945
6.8964062 -0.31977734 0.11251744
7.0389938 -0.26717812 0.15635179
7.3223529 -0.21476375 0.19131325
-10.610999 -0.15817598 0.10198325
-10.48946 -0.06794066 0.077172063
0.28893089 -0.1107192 0.017275453
6.7295151 -0.18209508 0.017036837
6.9193611 -0.16024731 0.031201936
7.0969481 -0.13589332 0.068368107
7.3105164 -0.090803042 0.085859977
7.5039539 -0.10822923 0.12943372
7.7024851 -0.070254251 0.12182391
7.8961291 -0.06191602 0.15975274
10.830868 -0.02079431 0.15520807
-10.492379 0.10049017 0.088494435
0.30590254 0.12032951 0.050228946
0.40658367 0.17001341 0.063085638
7.3419399 0.01923194 0.01858058
7.8717031 0.01648608 0.066359706
10.843939 0.11548678 0.096305005
-10.515144 0.29615319 0.09254469
-8.8473911 0.38318938 0.074654676
-8.7419138 0.35868835 0.022142151
0.19086875 0.24585441 0.077157974
10.844382 0.30041739 0.095436685
-10.500674 0.50856853 0.12743971
-8.8005571 0.44273579 0.074283764
-8.7248478 0.45362625 0.032445688
10.799584 0.58866554 0.091177158
10.845599 0.49627829 0.091514193
-10.480539 0.71004194 0.092474908
10.796364 0.65087777 0.027372316
10.831217 0.70119715 0.096021578
-10.499038 0.90270436 0.088774651
10.860821 0.89294785 0.091843285
-10.486594 1.0988612 0.092575692
10.869358 1.1015811 0.096136115
-10.493534 1.3030535 0.085223995
10.866922 1.3057046 0.092266977
-10.515451 1.4990939 0.089529954
10.876554 1.5066756 0.092578582
-10.515848 1.6935853 0.089795157
10.863354 1.6985879 0.092728049
-10.534707 1.8752135 0.10079139
-10.292456 1.9466423 0.15010707
-10.038321 1.8631479 0.055888798
-9.8472509 1.9260331 0.074786685
10.865141 1.8937639 0.092934221
-9.8422585 2.100127 0.084860265
10.891191 2.094744 0.093476191
-9.8397512 2.283335 0.070267536
-9.6680508 2.3079326 0.13058311
-9.4776564 2.329185 0.16275938
10.892695 2.2998791 0.089723229
-9.8334904 2.4244375 0.025631178
-9.6709499 2.456069 0.025251569
-9.46136 2.4912138 0.098528989
10.909121 2.5083275 0.099424988
-9.8292904 2.690835 0.14603773
-9.668726 2.6106315 0.14351588
-9.4465809 2.6522243 0.039278407
10.916769 2.6990106 0.094806723
-10.605675 2.9771287 0.092863128
-10.508957 2.9642582 0.14031802
-10.392466 2.9956989 0.091177158
-9.8153801 2.9840105 0.14701207
10.928544 2.9052806 0.095312975
13.073079 2.9030201 0.11289243
-10.611974 3.1032231 0.1367134
-10.548905 3.1341431 0.083702885
-10.361876 3.0791514 0.027357131
-10.16333 3.1683908 0.058289997
-9.8540707 3.0781326 0.071868949
-9.7541008 3.1547232 0.071373329
10.902681 3.0792367 0.11567867
-10.509371 3.2118697 0.12482792
-10.321356 3.2364116 0.15500747
-10.054702 3.2107983 0.15125336
-9.742259 3.3001993 0.08674857
-9.7352095 3.4951668 0.087228924
-9.7303352 3.6924262 0.087744631
-9.7288713 3.8616524 0.10682424
-10.568384 4.3218231 0.076110318
-10.575241 4.5069575 0.10179342
-10.57024 4.7013683 0.092314526
16.458675 4.7404499 0.068564974
-10.573083 4.9039717 0.10322334
-9.2765417 4.913681 0.15043186
16.465494 4.903934 0.094133288
-10.54412 5.1084614 0.089644983
-9.4855824 5.1738815 0.15483552
-9.2821074 5.0594463 0.076707914
-9.1926594 5.0568962 0.057440136
16.467224 5.1079059 0.10173864
-10.475617 5.3017073 0.10824241
-9.6095743 5.3508162 0.15761529
-9.468132 5.29601 0.082256846
16.471815 5.3155518 0.094850488
-10.425553 5.4717884 0.076062866
-10.393629 5.5613418 0.029832181
-9.6190166 5.4888182 0.15870427
-9.4787798 5.427114 0.049115047
-8.3533449 5.5752001 0.14391708
16.473835 5.4922919 0.084906295
-10.381929 5.6252193 0.029882796
-9.8840828 5.6858959 0.16340406
-9.6004715 5.666398 0.028212517
-9.4915628 5.7055864 0.13065138
-9.2815695 5.7312636 0.1240496
-9.0965195 5.7494226 0.12237897
-8.9057856 5.719471 0.15167366
-8.7356243 5.718524 0.14961989
-8.4916735 5.725832 0.10644623
-8.3509245 5.706018 0.075251766
16.482218 5.6914506 0.044129085
-10.40366 5.8645782 0.17114154
-10.397542 5.9740238 0.10109065
-9.8572292 5.8329511 0.062859647
-9.4695168 5.8597722 0.028182149
-9.3046932 5.8707361 0.027843032
-9.1091518 5.8814497 0.027440645
-8.8954906 5.8517261 0.062766597
-8.7027473 5.8878922 0.088536471
-8.4948492 5.9371157 0.026228428
16.481613 5.852663 0.044262372
-10.342301 6.0568318 0.10097135
-8.6798296 6.1059451 0.094658054
-0.51201409 6.1755624 0.083962135
16.52952 6.0325937 0.04453063
-10.304012 6.2279058 0.030469924
-8.6778269 6.2991128 0.095255047
-0.50027412 6.2454619 0.098162763
-8.6686058 6.4967494 0.091367587
-0.44026822 6.5040541 0.10301749
-8.665844 6.7089896 0.092405066
-0.43167475 6.7120018 0.036783695
-8.6602831 6.9092031 0.071581155
-0.43693051 6.9134088 0.09931501
-8.6545057 7.0458727 0.028242886
-0.42834026 7.0739555 0.12235905
-0.43479094 7.2850609 0.16471584
-8.3158751 7.5721693 0.1611688
-0.4130708 7.5781627 0.19820555
-9.4666243 7.7195258 0.13890275
-9.3060713 7.7247167 0.1375159
-9.1171265 7.7226825 0.14757155
-8.8926325 7.7056713 0.16861969
-8.712616 7.7379642 0.16698623
-8.5245667 7.7052402 0.16466498
-8.3134441 7.7082205 0.082005538
-0.40381727 7.6037259 0.15404874
-9.4414654 7.8802338 0.03112285
-9.287529 7.890152 0.030841095
-9.0810051 7.8611994 0.058604259
-8.8979187 7.8701901 0.06000074
