ply
format ascii 1.0
comment PCL generated
element vertex 1365
property float x
property float y
property float z
property uchar red
property uchar green
property uchar blue
element face 0
property list uchar int vertex_indices
end_header
-0.25383 -1.4748 -2.3871 75 84 59 
0.36684 -1.502 -2.3861 89 105 75 
0.38212 -1.5035 -2.3866 81 93 67 
0.38908 -1.505 -2.3866 81 92 66 
0.59156 -1.5139 -2.3796 84 97 70 
-0.23641 -1.4724 -2.3964 84 96 68 
0.199 -1.517 -2.3843 90 104 74 
0.41816 -1.5073 -2.3935 92 106 76 
0.070993 -1.4927 -2.3832 57 65 46 
-0.16351 -1.4731 -2.3819 83 95 67 
0.43984 -1.5152 -2.3811 91 106 76 
0.50354 -1.5134 -2.3795 89 103 75 
0.51274 -1.506 -2.3903 89 102 74 
0.048647 -1.4677 -2.3706 131 150 108 
-0.13619 -1.4651 -2.3742 95 108 76 
0.057543 -1.4673 -2.3722 109 125 90 
-0.06545 -1.4627 -2.3748 98 114 81 
0.56963 -1.512 -2.3812 75 86 62 
0.57714 -1.5133 -2.3806 74 85 61 
0.18465 -1.5109 -2.3939 85 98 71 
-0.24172 -1.4851 -2.3772 92 105 74 
0.23228 -1.5092 -2.3916 80 93 67 
0.24611 -1.5028 -2.4001 84 98 71 
0.06825 -1.4986 -2.3779 68 78 55 
0.066118 -1.4887 -2.3798 52 57 39 
0.065575 -1.4741 -2.3756 68 73 51 
-0.15792 -1.4781 -2.3699 97 113 79 
0.059059 -1.4717 -2.3714 93 105 75 
0.30596 -1.5076 -2.3889 87 100 71 
0.047835 -1.4739 -2.3669 117 133 94 
0.31497 -1.5054 -2.3897 86 98 71 
0.12512 -1.5045 -2.39 90 105 74 
0.133 -1.5119 -2.3831 89 103 74 
0.55767 -1.5143 -2.3757 79 90 64 
-0.25014 -1.4812 -2.3814 91 102 72 
-0.19633 -1.4786 -2.3776 96 112 80 
0.2915 -1.5182 -2.377 91 104 74 
0.4141 -1.5154 -2.3815 88 102 73 
0.33369 -1.5123 -2.3747 88 101 73 
0.051986 -1.4789 -2.3682 80 87 61 
0.10455 -1.5002 -2.3803 83 97 69 
-0.1304 -1.4703 -2.3653 97 111 78 
0.53447 -1.5128 -2.3733 85 98 70 
0.55846 -1.5065 -2.3835 74 85 61 
0.56499 -1.5185 -2.3727 82 94 67 
0.17416 -1.5219 -2.378 87 98 70 
0.059338 -1.4982 -2.375 58 64 45 
0.40471 -1.5132 -2.3831 87 102 73 
0.42812 -1.5201 -2.3747 86 100 72 
0.22239 -1.5137 -2.3867 83 95 68 
0.67585 -1.5256 -2.372 76 87 62 
0.31211 -1.518 -2.3733 95 108 77 
0.14477 -1.5235 -2.3708 83 95 67 
0.052922 -1.5013 -2.3686 63 69 49 
0.060108 -1.5024 -2.3711 72 82 59 
0.051404 -1.4967 -2.3692 55 57 40 
0.12765 -1.5161 -2.3737 88 102 72 
0.015509 -1.4928 -2.3445 63 70 50 
0.0022036 -1.4882 -2.3422 102 118 85 
0.012991 -1.4877 -2.3438 91 105 77 
-0.13922 -1.4998 -2.3452 94 106 74 
-0.13381 -1.4977 -2.3467 95 108 74 
-0.10707 -1.4884 -2.3408 103 118 83 
-0.009329 -1.492 -2.3379 100 116 85 
0.0065822 -1.4946 -2.3412 72 80 57 
0.013961 -1.5067 -2.3475 54 59 41 
-0.12423 -1.5008 -2.3424 99 114 79 
-0.10813 -1.4926 -2.3384 101 115 80 
0.080242 -1.5183 -2.3374 91 104 74 
-0.083479 -1.491 -2.335 107 126 91 
0.027586 -1.5114 -2.3403 94 111 80 
0.066436 -1.5181 -2.334 84 96 68 
-0.22967 -1.5054 -2.3356 88 102 73 
-0.059045 -1.4906 -2.3349 87 100 72 
-0.14308 -1.5063 -2.334 90 102 72 
-0.0078713 -1.4964 -2.3366 89 103 74 
0.016962 -1.5099 -2.3453 72 82 59 
0.0056999 -1.5102 -2.342 55 61 43 
-0.11649 -1.4996 -2.34 97 111 77 
0.09636 -1.521 -2.3381 87 100 71 
-0.090186 -1.4959 -2.3326 98 110 76 
0.048239 -1.511 -2.343 94 109 78 
-0.24212 -1.5022 -2.3429 90 104 74 
-0.023148 -1.4999 -2.3301 80 92 67 
-0.21619 -1.5027 -2.3409 88 101 73 
-0.03024 -1.494 -2.3312 91 104 76 
0.49063 -1.541 -2.3347 82 96 70 
-0.023928 -1.4962 -2.3308 93 107 79 
-0.16118 -1.5027 -2.3404 82 93 65 
-0.0049713 -1.5057 -2.3383 52 57 40 
0.32839 -1.5318 -2.338 89 103 73 
0.0066626 -1.5141 -2.3366 74 83 59 
0.33808 -1.5301 -2.3444 81 93 67 
0.35788 -1.5317 -2.344 93 106 76 
-0.24937 -1.5061 -2.3287 93 109 77 
-0.21538 -1.5072 -2.335 80 92 66 
0.2942 -1.5405 -2.3405 83 94 67 
-0.19726 -1.5109 -2.3335 83 92 65 
-0.073715 -1.495 -2.3307 102 118 84 
-0.19072 -1.5052 -2.3395 83 94 66 
-0.048088 -1.4979 -2.3269 95 112 81 
0.30084 -1.5359 -2.3452 84 97 69 
0.51285 -1.547 -2.328 89 103 75 
0.52763 -1.5481 -2.3291 84 97 70 
0.32228 -1.5324 -2.3388 90 103 73 
-0.018128 -1.51 -2.3339 52 57 40 
0.33629 -1.5344 -2.3304 83 96 69 
-0.0072896 -1.5132 -2.3355 64 72 50 
-0.13572 -1.5119 -2.3237 90 103 73 
-0.12395 -1.5048 -2.3382 96 112 79 
0.55477 -1.5419 -2.3367 87 101 73 
-0.10599 -1.5028 -2.3344 94 106 72 
-0.093258 -1.5085 -2.3303 102 113 75 
0.18361 -1.5457 -2.3474 89 102 72 
0.57925 -1.5499 -2.3332 82 93 67 
0.37524 -1.5378 -2.3344 93 108 78 
0.61292 -1.5464 -2.34 88 103 75 
0.20348 -1.547 -2.3457 85 98 69 
-0.079097 -1.5121 -2.3262 102 110 69 
0.22381 -1.551 -2.3355 69 81 59 
0.10381 -1.526 -2.3314 88 100 71 
0.62896 -1.5517 -2.3347 83 96 68 
0.45226 -1.5398 -2.3396 87 100 71 
0.08334 -1.5206 -2.3293 88 98 71 
0.095408 -1.5227 -2.3298 87 99 71 
-0.055487 -1.5027 -2.324 103 119 85 
-0.032321 -1.5117 -2.3297 47 51 35 
-0.043373 -1.5015 -2.3255 85 99 71 
-0.019672 -1.5157 -2.332 65 73 51 
-0.16822 -1.5098 -2.3321 76 87 61 
0.36208 -1.5364 -2.3354 90 103 73 
0.38309 -1.5418 -2.3311 83 97 69 
0.55449 -1.5548 -2.3218 78 90 64 
0.14735 -1.5403 -2.3363 90 104 74 
0.60371 -1.552 -2.3284 83 97 70 
-0.080645 -1.5173 -2.3243 100 110 70 
0.23597 -1.5513 -2.3332 89 103 74 
0.063252 -1.5209 -2.3263 81 92 64 
0.66468 -1.5551 -2.3345 74 85 61 
-0.075657 -1.5013 -2.3275 99 111 75 
-0.050443 -1.5085 -2.3238 75 84 60 
0.28523 -1.5514 -2.3299 84 96 68 
-0.048433 -1.5186 -2.3254 56 63 44 
-0.042618 -1.5119 -2.3278 49 53 37 
-0.056933 -1.5151 -2.3228 76 84 58 
0.3103 -1.5399 -2.3303 80 92 66 
-0.035059 -1.5178 -2.3275 69 78 54 
-0.22511 -1.5146 -2.3222 86 99 69 
-0.01445 -1.5185 -2.3269 85 97 68 
0.11115 -1.5296 -2.3317 87 99 71 
0.12392 -1.5343 -2.3296 88 101 72 
-0.18657 -1.5156 -2.3287 80 91 64 
0.014555 -1.5182 -2.3283 83 95 67 
0.39027 -1.5537 -2.319 81 94 67 
-0.17469 -1.5127 -2.3285 74 84 60 
0.037286 -1.5196 -2.3275 79 91 66 
0.13571 -1.5365 -2.3338 91 105 75 
-0.15391 -1.511 -2.3268 79 89 63 
0.40849 -1.5507 -2.3292 87 100 73 
0.61778 -1.5547 -2.3269 84 97 70 
-0.12116 -1.5135 -2.323 86 98 70 
-0.10832 -1.5106 -2.3281 92 105 74 
-0.096881 -1.5125 -2.3279 101 113 77 
0.64991 -1.5552 -2.3331 79 90 64 
0.17705 -1.5495 -2.3348 87 101 72 
0.18642 -1.5499 -2.3378 85 98 70 
-0.087083 -1.5182 -2.3237 94 105 70 
0.046327 -1.5214 -2.3243 87 100 72 
-0.065578 -1.5138 -2.3219 98 106 69 
0.65881 -1.5647 -2.3216 78 89 63 
-0.23753 -1.5074 -2.3294 86 101 72 
0.067362 -1.5216 -2.3163 115 136 100 
0.4691 -1.5417 -2.3342 85 98 70 
-0.23562 -1.5138 -2.3169 90 104 74 
0.2739 -1.5546 -2.329 88 101 72 
-0.20757 -1.5154 -2.3277 83 94 67 
-0.043995 -1.5205 -2.3238 70 80 56 
0.093466 -1.5245 -2.3131 101 121 89 
-0.19761 -1.5248 -2.3212 93 108 79 
0.104 -1.5306 -2.3224 97 115 85 
-0.032733 -1.5206 -2.3207 93 106 74 
0.32558 -1.5402 -2.3205 91 104 75 
0.11111 -1.5423 -2.3176 84 98 72 
-0.18371 -1.5174 -2.3245 84 97 69 
0.0092832 -1.5208 -2.3202 79 89 63 
0.024203 -1.5217 -2.3226 83 97 69 
0.56973 -1.5585 -2.3205 81 94 68 
0.5896 -1.5622 -2.3111 84 98 71 
0.20894 -1.5508 -2.336 87 100 72 
-0.10362 -1.5151 -2.3223 95 109 77 
0.59863 -1.5602 -2.3139 81 93 67 
0.63429 -1.5626 -2.3209 83 95 69 
0.46153 -1.557 -2.313 84 98 70 
-0.086896 -1.5203 -2.3194 93 106 74 
-0.074649 -1.5209 -2.3194 96 107 70 
-0.06462 -1.5206 -2.3189 85 94 63 
-0.053673 -1.5226 -2.3191 78 90 63 
0.51396 -1.5572 -2.3143 86 100 72 
-0.2058 -1.5267 -2.3196 84 97 70 
0.086357 -1.5213 -2.3159 99 115 82 
0.092135 -1.5227 -2.3172 93 108 77 
0.3319 -1.5369 -2.3249 87 100 72 
0.54107 -1.5496 -2.3272 80 93 67 
0.36193 -1.5408 -2.3196 88 101 73 
-0.18223 -1.5187 -2.3177 96 113 82 
0.37131 -1.5445 -2.3172 84 97 69 
-0.14254 -1.512 -2.3196 81 92 66 
0.60734 -1.5575 -2.3199 77 88 63 
0.45164 -1.5483 -2.3262 90 104 75 
-0.12039 -1.5154 -2.3176 84 94 66 
0.18824 -1.5525 -2.3287 89 102 73 
0.062582 -1.5233 -2.3102 153 185 145 
-0.10168 -1.5175 -2.3147 91 105 75 
0.29683 -1.5495 -2.3265 81 92 66 
-0.079533 -1.522 -2.3146 95 109 76 
0.076667 -1.5222 -2.3089 146 178 133 
-0.038345 -1.5218 -2.3119 91 104 74 
0.10516 -1.5397 -2.3166 89 107 82 
-0.21379 -1.5205 -2.3207 79 91 65 
-0.0054474 -1.5212 -2.3107 96 109 76 
0.39157 -1.5669 -2.3026 80 93 67 
0.40192 -1.5611 -2.3135 81 94 67 
0.57436 -1.5617 -2.3156 82 95 68 
0.024139 -1.5229 -2.3176 84 98 70 
-0.1734 -1.5134 -2.3224 76 86 61 
-0.16005 -1.512 -2.3221 77 88 62 
0.16762 -1.5515 -2.3144 85 99 71 
0.23839 -1.5555 -2.3234 86 99 71 
0.25047 -1.5539 -2.3283 88 99 69 
0.26788 -1.5584 -2.3241 89 102 72 
-0.08489 -1.5212 -2.3096 97 112 80 
0.42536 -1.5625 -2.3099 87 102 74 
0.21705 -1.5549 -2.3232 90 105 75 
0.23041 -1.5572 -2.315 83 96 70 
0.48469 -1.5557 -2.3133 86 99 71 
-0.21079 -1.5319 -2.3139 88 102 74 
-0.20264 -1.5308 -2.316 110 133 100 
0.10012 -1.5342 -2.3136 102 125 97 
0.092889 -1.5271 -2.3078 107 130 99 
-0.055172 -1.5234 -2.3142 85 99 70 
0.086998 -1.5228 -2.3082 130 158 119 
0.53981 -1.5597 -2.3153 81 94 67 
-0.17522 -1.5147 -2.3104 98 115 82 
0.27853 -1.5597 -2.3201 83 94 66 
0.28603 -1.558 -2.3193 81 93 65 
-0.16271 -1.5117 -2.3071 96 114 83 
0.12392 -1.5416 -2.3175 84 97 70 
0.1317 -1.5396 -2.3219 86 100 73 
0.15761 -1.5498 -2.3054 91 106 75 
0.34361 -1.5451 -2.3094 82 92 66 
0.15639 -1.5455 -2.3254 90 104 75 
-0.14121 -1.5121 -2.3048 92 106 75 
-0.019536 -1.5205 -2.3121 96 111 77 
-0.12118 -1.5155 -2.3107 84 93 65 
0.37864 -1.5513 -2.3118 77 90 65 
0.042223 -1.5241 -2.3116 119 140 110 
-0.11214 -1.5157 -2.2967 94 108 77 
0.6571 -1.5736 -2.307 85 100 72 
0.081031 -1.5236 -2.3041 147 180 137 
0.0797 -1.5287 -2.2947 134 164 124 
0.086052 -1.527 -2.3 119 146 111 
0.4921 -1.5592 -2.309 87 100 71 
0.10136 -1.5487 -2.3066 76 89 66 
0.5327 -1.5686 -2.3029 83 95 68 
0.29711 -1.555 -2.3158 84 96 68 
-0.22579 -1.5249 -2.3085 79 89 64 
-0.19476 -1.5279 -2.3148 119 147 111 
0.31116 -1.5479 -2.3155 82 93 66 
0.32004 -1.5502 -2.3065 82 94 67 
0.36556 -1.5486 -2.3054 80 93 67 
-0.17017 -1.5131 -2.3039 119 145 107 
-0.01306 -1.5222 -2.2975 158 188 143 
0.0075368 -1.5218 -2.3051 109 126 89 
-0.12138 -1.5152 -2.2918 116 137 98 
0.18409 -1.5552 -2.3113 90 104 74 
0.19653 -1.5553 -2.315 93 109 79 
0.095502 -1.5471 -2.3044 73 88 67 
-0.078066 -1.5218 -2.3072 94 107 75 
-0.21336 -1.5342 -2.3092 89 104 74 
-0.20428 -1.5355 -2.3081 123 152 116 
0.029948 -1.5246 -2.3034 130 157 119 
0.25941 -1.5625 -2.3144 90 104 74 
-0.076569 -1.5211 -2.2937 117 139 98 
-0.23476 -1.522 -2.3049 81 93 66 
0.67452 -1.5724 -2.3104 80 92 66 
-0.20404 -1.5365 -2.2962 111 137 104 
-0.053736 -1.5228 -2.3002 100 117 82 
0.065717 -1.5268 -2.2987 172 214 167 
0.24212 -1.5599 -2.313 80 92 65 
-0.032073 -1.5222 -2.2961 134 161 117 
-0.17595 -1.5167 -2.2968 138 169 126 
-0.16702 -1.5141 -2.2948 131 162 122 
0.11706 -1.547 -2.3082 93 107 76 
0.55024 -1.5685 -2.3035 77 90 65 
-0.15995 -1.513 -2.2965 128 158 119 
0.010658 -1.5235 -2.2962 158 189 142 
-0.14073 -1.5129 -2.2966 127 153 113 
0.38581 -1.5685 -2.2962 74 86 62 
0.37195 -1.556 -2.2978 75 86 61 
-0.2155 -1.5348 -2.304 87 101 71 
0.60024 -1.5719 -2.2961 85 97 69 
-0.20905 -1.5364 -2.3073 104 126 93 
0.63194 -1.5747 -2.3043 88 102 74 
0.64242 -1.5765 -2.3029 85 100 72 
0.034981 -1.5289 -2.2886 174 217 169 
0.66063 -1.5759 -2.2987 84 98 70 
0.23712 -1.5613 -2.3037 83 96 69 
-0.19455 -1.529 -2.2925 138 173 133 
0.037894 -1.5315 -2.2818 171 213 166 
-0.095096 -1.5185 -2.2907 121 144 103 
0.26855 -1.5643 -2.31 89 102 73 
-0.1638 -1.5152 -2.2904 124 150 111 
0.079214 -1.5346 -2.2872 129 159 123 
0.4415 -1.5634 -2.3077 79 92 66 
0.087606 -1.5331 -2.2975 104 128 98 
-0.054575 -1.523 -2.2918 134 161 117 
0.29693 -1.5593 -2.3017 84 96 68 
0.46505 -1.5648 -2.3031 89 102 72 
0.50395 -1.5662 -2.3013 81 93 67 
0.093443 -1.5543 -2.2952 74 87 64 
-0.02178 -1.5234 -2.2913 174 211 162 
0.14666 -1.5493 -2.3013 88 102 72 
-0.13619 -1.5163 -2.2861 144 176 133 
0.35684 -1.5463 -2.3068 79 91 65 
0.068075 -1.5315 -2.2873 157 193 147 
-0.10937 -1.5192 -2.2838 138 165 120 
0.61387 -1.5706 -2.304 76 87 62 
0.40564 -1.5706 -2.2998 93 108 78 
0.25761 -1.5644 -2.3075 93 108 77 
-0.23293 -1.5262 -2.296 79 90 62 
0.44301 -1.5719 -2.2966 115 143 108 
-0.08097 -1.5221 -2.2837 160 196 148 
0.27271 -1.5666 -2.2949 98 114 82 
0.2781 -1.5631 -2.3117 88 101 72 
-0.18951 -1.525 -2.2911 140 175 134 
0.48837 -1.5702 -2.296 78 90 64 
0.66784 -1.5765 -2.2928 83 95 68 
0.67947 -1.5763 -2.3 82 94 67 
-0.035312 -1.524 -2.2892 160 196 146 
0.11375 -1.553 -2.2911 91 103 72 
0.31104 -1.5632 -2.2875 84 97 69 
0.33963 -1.5546 -2.2955 87 100 71 
0.013967 -1.526 -2.2888 183 225 177 
-0.20917 -1.5374 -2.298 94 112 83 
0.3661 -1.5561 -2.2941 83 97 69 
0.59176 -1.5716 -2.294 87 100 71 
0.18548 -1.5573 -2.2973 87 104 74 
-0.2378 -1.5255 -2.2909 76 88 62 
0.47164 -1.5717 -2.2956 85 98 70 
0.080947 -1.5404 -2.2855 106 132 103 
-0.2181 -1.5342 -2.2974 86 99 70 
-0.064008 -1.5235 -2.2846 153 187 138 
0.64006 -1.585 -2.2895 80 92 66 
-0.047183 -1.5261 -2.2805 167 204 154 
0.65712 -1.5793 -2.2892 83 96 70 
0.51551 -1.5733 -2.2925 80 93 67 
0.53386 -1.5716 -2.2983 83 95 68 
0.29193 -1.5634 -2.2939 84 96 68 
-0.20006 -1.5346 -2.2848 140 173 135 
-0.0093027 -1.528 -2.2824 179 218 164 
0.5713 -1.5758 -2.2914 90 105 76 
0.30063 -1.5636 -2.29 84 96 68 
-0.18456 -1.5245 -2.2831 135 165 123 
0.37692 -1.5667 -2.2888 76 87 63 
0.39719 -1.5742 -2.2938 88 102 75 
-0.14704 -1.5224 -2.2758 119 146 111 
0.23755 -1.5639 -2.2876 90 104 74 
-0.11764 -1.5229 -2.2767 131 154 111 
-0.25347 -1.5237 -2.2728 97 116 85 
0.047494 -1.5353 -2.2746 177 220 170 
-0.24242 -1.5264 -2.2779 93 110 80 
0.26696 -1.5684 -2.2874 90 102 72 
0.49715 -1.5782 -2.2849 79 90 65 
-0.07426 -1.5261 -2.2765 157 190 140 
0.53047 -1.5786 -2.2845 84 97 69 
0.3574 -1.5641 -2.2787 81 92 66 
0.66179 -1.5793 -2.2858 78 89 65 
-0.029633 -1.5285 -2.2803 171 208 156 
-0.20452 -1.5366 -2.2815 108 131 101 
0.55971 -1.5742 -2.2955 86 99 70 
0.020557 -1.5294 -2.2808 183 225 181 
-0.19246 -1.5293 -2.2824 153 190 147 
0.14241 -1.5549 -2.2788 92 107 76 
0.15746 -1.5538 -2.2877 87 100 72 
0.58925 -1.5784 -2.2798 82 94 68 
-0.16639 -1.518 -2.2863 120 141 102 
0.19813 -1.5604 -2.2913 92 106 75 
0.22378 -1.5631 -2.2867 82 95 68 
0.42056 -1.5783 -2.2872 79 91 66 
0.63241 -1.5844 -2.2902 78 91 66 
0.64201 -1.5899 -2.2798 75 86 62 
0.64912 -1.5835 -2.2882 83 96 69 
0.4536 -1.576 -2.2902 97 115 83 
-0.22382 -1.5311 -2.2799 87 102 73 
-0.2093 -1.5359 -2.2793 90 107 80 
0.27933 -1.5692 -2.2844 87 100 72 
0.56901 -1.5825 -2.2772 90 103 74 
0.068869 -1.5366 -2.2778 147 182 140 
0.069601 -1.5435 -2.2719 124 155 120 
0.17131 -1.5554 -2.2944 92 105 74 
-0.18428 -1.5288 -2.2767 130 158 117 
-0.17283 -1.5226 -2.2818 122 143 101 
-0.11441 -1.5308 -2.2656 142 171 125 
0.43304 -1.5853 -2.2771 96 112 82 
0.47649 -1.5837 -2.2804 84 97 69 
0.063663 -1.5417 -2.2684 146 181 140 
0.29366 -1.5708 -2.2787 88 102 73 
-0.062623 -1.5365 -2.262 141 165 115 
-0.058859 -1.5289 -2.2732 160 193 143 
-0.23347 -1.5306 -2.2668 89 109 80 
0.0017918 -1.5327 -2.2746 184 227 175 
0.3506 -1.5629 -2.2799 81 92 66 
0.11486 -1.5564 -2.2772 87 100 72 
0.54647 -1.5808 -2.2809 85 98 70 
0.55712 -1.5864 -2.2684 88 101 72 
0.16252 -1.5605 -2.2711 84 97 69 
0.19254 -1.5666 -2.2738 84 96 67 
0.59507 -1.58 -2.2776 82 94 67 
-0.19397 -1.5344 -2.2757 134 163 125 
0.23728 -1.5658 -2.2819 88 103 74 
-0.15748 -1.528 -2.2708 110 134 100 
-0.10333 -1.5367 -2.2576 142 172 128 
0.6569 -1.5844 -2.2775 72 81 59 
0.4792 -1.5864 -2.2764 87 101 71 
0.66297 -1.5841 -2.2759 73 85 61 
0.48014 -1.5892 -2.2713 89 104 74 
0.17453 -1.5628 -2.2744 88 99 70 
0.57848 -1.5825 -2.2754 85 98 71 
0.61036 -1.583 -2.286 83 96 69 
-0.19326 -1.5393 -2.2684 88 106 81 
-0.1843 -1.5401 -2.2656 101 120 88 
-0.17113 -1.5335 -2.2688 112 129 91 
0.26901 -1.5737 -2.2755 83 95 68 
-0.24475 -1.5289 -2.2643 91 110 82 
0.3256 -1.5698 -2.2754 78 90 65 
-0.082586 -1.5337 -2.2654 147 176 127 
0.10585 -1.5597 -2.2682 88 101 72 
-0.21549 -1.5345 -2.2676 88 109 81 
-0.20489 -1.5373 -2.2707 86 106 81 
0.10702 -1.5616 -2.2621 86 100 72 
0.12531 -1.5574 -2.2737 90 105 74 
-0.19985 -1.5373 -2.2736 106 130 100 
0.38364 -1.5788 -2.2792 80 92 66 
0.36958 -1.5733 -2.2727 82 93 65 
-0.026017 -1.5392 -2.2629 162 196 144 
0.14015 -1.5577 -2.2704 87 100 71 
0.14942 -1.5592 -2.2685 88 100 71 
-0.014135 -1.5378 -2.2665 163 196 145 
0.0025485 -1.5401 -2.2611 182 223 175 
0.61241 -1.5919 -2.2711 80 93 66 
0.22049 -1.5672 -2.2761 88 104 75 
0.62104 -1.5927 -2.2744 81 95 69 
-0.13633 -1.53 -2.2655 114 138 103 
0.23762 -1.5684 -2.277 87 101 73 
0.65749 -1.5904 -2.2677 78 91 65 
0.44931 -1.5911 -2.2683 82 93 66 
-0.056718 -1.546 -2.2486 139 166 119 
0.458 -1.5943 -2.2636 86 98 70 
0.37988 -1.5903 -2.2552 81 93 67 
0.67417 -1.5889 -2.2668 80 92 66 
0.16116 -1.5632 -2.2657 78 90 64 
0.029669 -1.5371 -2.2689 186 230 182 
-0.17614 -1.5482 -2.2567 74 88 63 
0.069971 -1.5673 -2.2664 82 97 71 
0.080888 -1.5649 -2.2737 89 102 73 
0.099337 -1.5578 -2.2807 90 105 74 
0.053039 -1.5442 -2.2608 172 216 168 
0.59761 -1.594 -2.253 79 91 66 
0.60285 -1.5913 -2.2608 76 88 63 
0.62875 -1.5932 -2.2748 80 93 67 
0.25619 -1.578 -2.2682 78 90 64 
0.26307 -1.582 -2.2645 79 91 65 
0.27827 -1.5795 -2.2671 90 105 76 
-0.089616 -1.5458 -2.2469 124 149 107 
0.64657 -1.5968 -2.2629 78 89 64 
-0.23897 -1.5327 -2.2586 89 110 82 
0.1693 -1.5697 -2.2612 76 87 62 
0.3091 -1.5793 -2.2656 83 96 68 
-0.21054 -1.5387 -2.2592 87 109 82 
0.50898 -1.5897 -2.2664 83 94 67 
-0.225 -1.5366 -2.2586 88 111 83 
0.34712 -1.5748 -2.2641 80 92 66 
-0.1959 -1.5424 -2.2613 67 83 63 
-0.0402 -1.5459 -2.2493 154 188 138 
0.12459 -1.5653 -2.2551 88 102 72 
0.54172 -1.5886 -2.2662 76 87 62 
-0.18266 -1.5472 -2.2562 52 61 45 
0.39547 -1.5915 -2.2675 85 98 70 
0.5892 -1.5894 -2.2607 81 96 70 
-0.14614 -1.5412 -2.2527 121 143 103 
0.1868 -1.5693 -2.2671 84 97 70 
0.61743 -1.5963 -2.2643 87 101 72 
0.054942 -1.549 -2.2561 149 186 145 
0.21726 -1.5705 -2.2701 89 103 74 
0.039105 -1.5472 -2.2517 176 219 168 
0.42836 -1.5938 -2.2636 91 106 76 
0.06098 -1.5697 -2.2572 80 96 73 
0.075935 -1.568 -2.2659 87 101 72 
0.091736 -1.5651 -2.2596 85 99 72 
0.6509 -1.598 -2.2604 76 88 63 
-0.23682 -1.5412 -2.2458 94 119 90 
0.67153 -1.5935 -2.2599 73 84 61 
0.32837 -1.5795 -2.2615 81 93 66 
0.35428 -1.5782 -2.2592 84 96 69 
0.36236 -1.5757 -2.2642 85 97 69 
0.37129 -1.5871 -2.2516 85 98 70 
0.13814 -1.5638 -2.2592 86 99 70 
0.030679 -1.5475 -2.2495 172 214 164 
0.066098 -1.5729 -2.2556 85 100 73 
0.40532 -1.5912 -2.269 81 92 66 
0.05754 -1.5526 -2.2562 126 157 123 
0.62402 -1.5963 -2.2671 84 98 70 
0.18308 -1.5757 -2.2583 79 92 65 
0.21893 -1.5756 -2.2631 82 94 66 
0.25467 -1.5863 -2.2602 76 87 62 
0.66087 -1.6025 -2.2544 70 79 56 
0.27719 -1.5907 -2.2545 83 95 67 
0.29076 -1.5804 -2.2645 87 101 73 
-0.1975 -1.5475 -2.2478 79 101 79 
0.3032 -1.5903 -2.2522 80 92 66 
0.44432 -1.601 -2.2515 85 98 71 
0.15269 -1.5741 -2.2522 79 91 65 
0.51262 -1.596 -2.2569 81 92 66 
0.19862 -1.5803 -2.2549 76 87 62 
0.051641 -1.5698 -2.2448 81 97 74 
0.059505 -1.5592 -2.257 99 123 96 
0.23124 -1.5802 -2.2604 77 87 62 
0.55216 -1.5951 -2.2542 80 92 66 
0.38963 -1.5917 -2.2638 89 103 74 
0.077455 -1.5738 -2.2494 90 103 73 
0.6343 -1.6015 -2.2541 76 85 61 
0.40664 -1.5993 -2.2569 87 102 72 
0.6432 -1.6075 -2.2479 79 91 65 
-0.11994 -1.5502 -2.239 108 127 92 
0.45756 -1.6009 -2.2511 88 103 74 
-0.034262 -1.5519 -2.2369 161 201 155 
0.11217 -1.5682 -2.2479 85 98 70 
-0.021371 -1.5471 -2.248 157 192 142 
0.48864 -1.5939 -2.2604 84 98 70 
0.14379 -1.5697 -2.2526 84 95 67 
0.015191 -1.5533 -2.2378 162 199 150 
-0.1722 -1.5589 -2.2473 51 61 45 
0.51782 -1.6011 -2.2479 86 101 74 
-0.17599 -1.5551 -2.2491 45 53 38 
-0.16505 -1.5499 -2.2514 102 119 85 
0.05038 -1.5588 -2.2446 120 147 113 
-0.15553 -1.5469 -2.2492 118 137 98 
-0.13813 -1.5478 -2.2424 120 141 102 
0.22384 -1.5915 -2.2506 73 82 59 
0.04446 -1.557 -2.2399 142 174 134 
0.55499 -1.6024 -2.2389 84 96 69 
0.038118 -1.5569 -2.2352 151 187 142 
0.57735 -1.5951 -2.2519 86 99 71 
0.61479 -1.5992 -2.249 89 103 73 
0.25061 -1.5964 -2.2514 80 92 66 
0.16809 -1.5812 -2.2512 79 91 65 
-0.23069 -1.5485 -2.2362 87 111 85 
0.09458 -1.5691 -2.2485 75 86 63 
-0.21106 -1.5482 -2.2393 77 98 76 
0.32365 -1.5903 -2.2499 80 92 66 
0.13561 -1.5744 -2.2431 78 89 64 
-0.1678 -1.5588 -2.2465 61 73 54 
0.33392 -1.586 -2.2525 82 94 67 
0.53577 -1.5978 -2.2533 84 98 71 
0.18652 -1.5907 -2.2434 76 88 64 
0.20613 -1.5896 -2.2478 72 82 58 
0.56753 -1.5921 -2.2585 85 98 70 
-0.16002 -1.556 -2.2404 91 109 82 
0.24255 -1.5947 -2.2519 79 90 64 
0.63176 -1.6045 -2.2477 74 84 60 
0.055791 -1.5746 -2.2472 75 88 66 
0.044397 -1.5647 -2.2352 110 134 103 
0.032234 -1.5568 -2.2328 162 199 151 
0.089917 -1.571 -2.2466 77 88 63 
0.65697 -1.608 -2.2478 75 86 62 
0.66794 -1.6085 -2.245 75 86 63 
-0.083797 -1.5536 -2.236 113 136 99 
0.26159 -1.5973 -2.2499 79 91 65 
0.67509 -1.6003 -2.2508 74 84 61 
0.47323 -1.5956 -2.2578 98 117 86 
-0.19917 -1.5565 -2.2294 85 108 84 
0.12339 -1.5709 -2.2447 79 91 65 
-0.010438 -1.5559 -2.231 161 197 149 
-0.18627 -1.5508 -2.2442 64 79 59 
-0.16672 -1.5641 -2.2412 53 62 46 
0.059867 -1.5769 -2.2459 80 93 68 
0.50549 -1.6023 -2.2447 85 98 71 
0.35006 -1.59 -2.2426 80 92 65 
0.54211 -1.6005 -2.2476 88 103 74 
0.14338 -1.5798 -2.2403 75 85 60 
-0.15321 -1.5537 -2.2361 112 135 100 
-0.14717 -1.5531 -2.235 122 146 107 
0.59433 -1.6038 -2.2377 77 89 63 
0.25526 -1.6085 -2.2422 76 84 59 
0.63441 -1.6105 -2.2394 78 90 65 
0.68417 -1.6121 -2.2334 69 78 55 
0.16134 -1.583 -2.2476 83 95 68 
-0.06645 -1.5556 -2.233 119 141 101 
0.31353 -1.5999 -2.2376 84 94 66 
-0.055645 -1.5586 -2.2284 118 142 103 
-0.17239 -1.5627 -2.2416 57 68 51 
-0.1634 -1.5682 -2.234 62 73 53 
-0.030633 -1.556 -2.23 156 193 149 
-0.16019 -1.5631 -2.2377 60 70 52 
-0.1506 -1.5573 -2.2314 102 122 91 
0.051307 -1.578 -2.2403 76 90 67 
0.40065 -1.6053 -2.2447 80 91 65 
0.61229 -1.6016 -2.2428 83 96 69 
0.081389 -1.5792 -2.2377 83 94 66 
0.096499 -1.5781 -2.2323 78 87 62 
0.27949 -1.6015 -2.242 82 92 65 
-0.10293 -1.5551 -2.2336 101 118 84 
0.65151 -1.6127 -2.2397 79 89 64 
0.48428 -1.6074 -2.2362 85 100 72 
-0.24756 -1.556 -2.2231 87 104 76 
0.32984 -1.598 -2.2358 79 91 65 
-0.18054 -1.5565 -2.2384 68 84 63 
0.5355 -1.6059 -2.237 91 107 77 
0.39329 -1.6054 -2.2399 79 89 64 
0.57544 -1.6057 -2.2249 82 96 69 
0.24636 -1.6083 -2.2433 73 81 57 
-0.15834 -1.5689 -2.2339 57 66 48 
0.42579 -1.6073 -2.2424 87 101 73 
0.040435 -1.5816 -2.2268 72 85 63 
-0.13904 -1.5636 -2.2235 108 131 98 
0.62112 -1.609 -2.2359 78 88 63 
0.03771 -1.5711 -2.2259 103 126 96 
-0.13371 -1.5608 -2.226 129 157 115 
0.031681 -1.5612 -2.2268 151 185 140 
0.035734 -1.5644 -2.2265 131 160 121 
0.075196 -1.5857 -2.2284 83 96 69 
0.66622 -1.616 -2.231 86 99 70 
0.14636 -1.5914 -2.23 78 89 64 
-0.082742 -1.5662 -2.2189 95 110 79 
0.10473 -1.5786 -2.2304 83 94 66 
0.29248 -1.604 -2.2365 84 96 70 
0.34682 -1.5956 -2.2354 81 94 68 
-0.15867 -1.5716 -2.2293 68 79 56 
-0.1533 -1.569 -2.2301 54 62 45 
0.35692 -1.593 -2.2382 76 87 61 
0.017347 -1.5665 -2.2166 176 215 168 
0.58779 -1.6037 -2.2361 80 91 66 
-0.14571 -1.5681 -2.2243 69 81 61 
0.20301 -1.5986 -2.2393 78 89 63 
0.22137 -1.6033 -2.2411 76 86 61 
0.3724 -1.5958 -2.2377 83 96 68 
0.049044 -1.5838 -2.23 83 95 68 
0.38198 -1.6012 -2.2338 80 91 65 
0.39072 -1.6086 -2.2265 88 102 72 
0.061883 -1.5846 -2.2291 83 96 69 
0.24752 -1.6204 -2.2317 83 94 67 
0.62947 -1.613 -2.2311 79 90 64 
0.64866 -1.6157 -2.2309 81 93 66 
0.67796 -1.6164 -2.228 81 93 66 
0.098937 -1.5882 -2.2184 90 105 75 
0.45937 -1.6131 -2.23 87 100 72 
0.32256 -1.6046 -2.2288 79 89 63 
0.15967 -1.5983 -2.2292 83 94 66 
0.55261 -1.6115 -2.2222 85 95 68 
0.33743 -1.6039 -2.2273 79 90 64 
-0.17572 -1.5646 -2.2275 78 98 75 
-0.043556 -1.5617 -2.2221 130 160 120 
-0.15382 -1.5735 -2.2237 69 80 57 
-0.024443 -1.5679 -2.2124 132 162 121 
0.18084 -1.597 -2.2355 75 87 63 
0.39941 -1.6123 -2.2275 80 92 65 
0.59673 -1.6108 -2.225 87 102 74 
-0.0027751 -1.5683 -2.2129 157 194 147 
0.60884 -1.6118 -2.2288 83 96 68 
0.23111 -1.6118 -2.237 78 87 61 
0.024461 -1.5725 -2.213 137 168 130 
-0.10605 -1.5671 -2.2187 105 123 88 
0.17176 -1.6098 -2.2187 83 94 67 
-0.22895 -1.5659 -2.2097 82 103 77 
0.50562 -1.6096 -2.2291 88 102 74 
-0.22272 -1.5573 -2.2228 82 102 77 
0.1151 -1.5879 -2.2204 87 100 71 
-0.20429 -1.5682 -2.2105 74 94 72 
0.18461 -1.6066 -2.2243 82 94 68 
0.19933 -1.6064 -2.2294 84 94 67 
0.56806 -1.607 -2.2224 80 94 68 
-0.185 -1.5664 -2.2177 82 104 80 
0.22334 -1.6169 -2.2281 82 94 66 
0.36782 -1.6085 -2.2174 85 99 71 
0.019044 -1.5696 -2.2128 164 200 156 
0.027227 -1.578 -2.213 107 131 101 
0.4141 -1.6144 -2.2284 78 89 64 
0.62123 -1.6158 -2.222 82 94 67 
0.042684 -1.5855 -2.2246 76 87 63 
0.44361 -1.6135 -2.2307 87 101 73 
-0.12076 -1.5721 -2.2121 124 154 116 
0.13204 -1.589 -2.2253 87 99 70 
0.66362 -1.6188 -2.2218 80 93 67 
-0.06913 -1.5691 -2.2138 97 115 83 
0.5091 -1.6175 -2.2158 83 97 69 
0.525 -1.6178 -2.2144 84 97 70 
0.055597 -1.5904 -2.2175 86 99 71 
0.58215 -1.6095 -2.2147 80 94 68 
-0.16384 -1.5745 -2.2166 96 116 84 
-0.14823 -1.5732 -2.2218 64 73 54 
0.60319 -1.6136 -2.2199 89 105 76 
-0.15319 -1.577 -2.2147 89 103 73 
-0.13446 -1.5791 -2.21 77 90 66 
0.24041 -1.6207 -2.2311 82 93 65 
0.27242 -1.6142 -2.23 84 91 63 
0.64433 -1.6184 -2.2119 86 100 73 
-0.091193 -1.5797 -2.2036 97 114 81 
0.48358 -1.6161 -2.2209 84 97 69 
-0.05533 -1.5722 -2.2076 101 120 86 
0.31023 -1.6125 -2.2218 82 90 62 
-0.019088 -1.5813 -2.193 117 141 103 
0.012855 -1.5807 -2.1992 125 152 115 
0.56869 -1.6126 -2.2043 88 101 73 
0.0069621 -1.5784 -2.1992 133 161 118 
0.21323 -1.6169 -2.2234 82 93 66 
0.24919 -1.6243 -2.2262 84 94 66 
-0.12741 -1.5788 -2.2083 85 100 75 
0.031188 -1.5882 -2.2149 79 93 69 
0.02342 -1.5888 -2.2061 83 100 76 
0.036274 -1.5906 -2.2156 82 95 68 
0.4078 -1.6158 -2.2249 78 89 63 
-0.11691 -1.5709 -2.2133 129 159 119 
0.29489 -1.6178 -2.2178 84 93 64 
0.68639 -1.6254 -2.2089 82 94 68 
0.53581 -1.6205 -2.2078 82 95 67 
0.10367 -1.6006 -2.201 84 96 69 
0.55543 -1.6189 -2.2024 81 93 67 
0.026838 -1.5928 -2.2068 80 94 69 
0.032041 -1.595 -2.2066 86 99 71 
0.20662 -1.6235 -2.2086 87 98 68 
0.24164 -1.6278 -2.2207 86 99 71 
0.25577 -1.6267 -2.2203 80 87 60 
0.26454 -1.6217 -2.2247 78 85 58 
-0.11188 -1.5838 -2.2007 91 106 77 
0.28693 -1.6284 -2.2079 82 89 61 
0.65581 -1.6199 -2.2073 79 91 66 
0.48634 -1.6239 -2.2065 81 93 66 
0.67443 -1.6231 -2.2102 82 94 67 
0.13139 -1.6051 -2.2064 80 91 65 
-0.20566 -1.5769 -2.1982 77 96 72 
-0.069101 -1.5799 -2.1991 113 135 96 
0.16305 -1.6103 -2.215 80 89 64 
-0.17787 -1.5759 -2.2066 88 105 76 
0.62714 -1.6223 -2.1964 83 97 69 
-0.03791 -1.5756 -2.2028 112 138 104 
0.37854 -1.6136 -2.2109 83 96 69 
0.40202 -1.6257 -2.1923 90 104 73 
0.40912 -1.6241 -2.207 87 100 71 
0.11434 -1.6006 -2.2041 82 93 67 
0.5781 -1.6116 -2.2028 88 102 73 
0.59439 -1.6144 -2.2003 84 99 71 
-0.13677 -1.5829 -2.2025 82 94 66 
0.19608 -1.6151 -2.2167 83 95 67 
0.23473 -1.6271 -2.2193 85 98 69 
0.068558 -1.6029 -2.2029 87 99 70 
0.45438 -1.6325 -2.1968 78 89 64 
-0.055319 -1.583 -2.1948 116 140 102 
0.31181 -1.6245 -2.2067 85 95 67 
0.6562 -1.6227 -2.1944 77 89 64 
0.14306 -1.603 -2.2139 84 95 67 
0.33731 -1.6288 -2.1955 83 93 65 
0.35571 -1.6136 -2.2111 79 90 63 
0.52057 -1.6281 -2.1959 81 95 68 
0.01461 -1.5866 -2.1974 101 122 93 
0.61566 -1.6189 -2.2064 89 104 74 
-0.0083422 -1.5815 -2.1929 121 147 108 
0.38447 -1.6171 -2.205 84 97 70 
0.38945 -1.614 -2.2136 87 101 72 
0.41738 -1.6273 -2.2049 85 97 69 
0.42851 -1.6288 -2.2036 79 91 66 
0.081653 -1.5968 -2.2119 84 96 68 
0.25518 -1.631 -2.2115 82 93 66 
-0.14014 -1.5902 -2.1901 90 103 73 
0.043202 -1.5985 -2.2022 94 108 77 
0.26732 -1.63 -2.2129 80 91 65 
0.082182 -1.6078 -2.194 89 101 71 
0.094199 -1.602 -2.1988 84 96 68 
0.64049 -1.6229 -2.1948 72 83 60 
-0.036027 -1.5887 -2.1855 122 147 107 
0.66813 -1.625 -2.1937 78 91 66 
0.55099 -1.626 -2.1906 81 93 66 
0.68577 -1.6301 -2.1943 82 96 70 
-0.19217 -1.5813 -2.1933 84 98 69 
0.0030405 -1.593 -2.1842 95 114 86 
-0.16926 -1.5884 -2.187 94 109 79 
0.57837 -1.6149 -2.1923 85 98 71 
0.36057 -1.6253 -2.1924 87 101 71 
0.17282 -1.6216 -2.2026 87 99 70 
0.21698 -1.6279 -2.2051 93 106 75 
0.23873 -1.6306 -2.2121 84 96 68 
0.60163 -1.6217 -2.1826 79 90 63 
0.25734 -1.6337 -2.2025 85 99 71 
-0.11423 -1.5859 -2.1975 87 100 71 
0.27529 -1.6348 -2.2027 81 91 65 
0.15235 -1.6186 -2.1974 83 96 69 
0.61199 -1.6211 -2.1895 82 93 67 
-0.058134 -1.5921 -2.1825 119 144 103 
0.67224 -1.6284 -2.188 78 90 65 
-0.22842 -1.577 -2.191 75 96 76 
0.54915 -1.62 -2.2049 82 95 68 
0.32911 -1.6182 -2.2105 87 98 69 
0.011864 -1.5963 -2.1915 78 92 70 
0.21188 -1.63 -2.1983 87 99 69 
0.5641 -1.6213 -2.1845 84 96 68 
-0.0041681 -1.5913 -2.1807 110 133 98 
0.569 -1.6208 -2.1817 81 92 66 
0.65273 -1.625 -2.1884 78 90 65 
0.58653 -1.6164 -2.189 80 93 67 
0.066543 -1.6139 -2.1865 86 98 71 
0.023347 -1.598 -2.1981 85 96 69 
0.41817 -1.6324 -2.1926 86 98 69 
0.42902 -1.6363 -2.1905 85 98 69 
-0.080799 -1.596 -2.1819 93 109 80 
0.46903 -1.6283 -2.2032 74 85 61 
0.62524 -1.6255 -2.1866 76 88 63 
0.095588 -1.6117 -2.1871 91 105 75 
-0.24557 -1.5808 -2.1788 81 101 77 
0.016226 -1.5995 -2.1932 77 88 64 
0.63448 -1.6275 -2.1849 73 84 60 
0.65079 -1.6287 -2.1834 76 89 65 
0.39098 -1.6237 -2.1913 85 98 69 
-0.15453 -1.5893 -2.1887 96 111 80 
0.40074 -1.6303 -2.1827 79 92 66 
0.18689 -1.6283 -2.1962 88 102 73 
-0.11639 -1.5963 -2.1754 92 106 75 
-0.10514 -1.5967 -2.1749 90 102 72 
0.58113 -1.6231 -2.1762 76 88 63 
0.23 -1.6338 -2.1951 84 97 68 
0.61191 -1.6249 -2.1808 73 84 60 
0.28901 -1.6354 -2.1964 83 93 64 
0.49291 -1.6332 -2.1915 84 96 68 
-0.024464 -1.5987 -2.1689 123 148 108 
-0.003879 -1.5965 -2.1772 95 115 86 
0.34454 -1.6312 -2.19 83 94 67 
0.0078338 -1.6096 -2.1788 83 93 66 
0.17212 -1.6275 -2.1928 84 97 69 
0.39102 -1.6283 -2.1836 83 95 68 
0.56964 -1.6263 -2.1718 81 94 68 
-0.0152 -1.597 -2.1715 112 134 98 
0.41571 -1.642 -2.1693 81 92 65 
0.19309 -1.6339 -2.1885 78 89 64 
0.073426 -1.6134 -2.188 89 101 72 
0.085616 -1.6133 -2.1845 88 101 71 
0.23019 -1.6382 -2.1829 83 95 67 
0.43828 -1.6373 -2.1896 81 93 66 
0.036362 -1.6088 -2.1843 88 101 72 
0.24433 -1.6353 -2.1921 95 111 79 
0.66144 -1.6345 -2.1787 70 80 58 
0.67417 -1.6345 -2.1794 71 81 58 
0.11576 -1.6154 -2.1876 78 91 66 
-0.082315 -1.5992 -2.1767 86 99 71 
0.12397 -1.6198 -2.1841 82 95 68 
0.27244 -1.6371 -2.1963 81 93 67 
0.14731 -1.6338 -2.1705 81 94 67 
0.54335 -1.6339 -2.1795 79 91 65 
-0.18061 -1.5938 -2.176 85 98 71 
0.32317 -1.635 -2.1883 84 95 67 
-0.16389 -1.5975 -2.1735 84 96 68 
0.3741 -1.6287 -2.1832 80 93 66 
-0.0022915 -1.6132 -2.172 78 88 63 
-0.14593 -1.599 -2.1731 93 108 78 
0.62524 -1.6303 -2.1788 69 79 57 
0.59346 -1.6245 -2.1764 75 85 60 
0.07909 -1.6219 -2.1719 93 108 77 
0.28253 -1.6377 -2.1929 84 97 69 
0.053991 -1.608 -2.1901 88 100 71 
0.10766 -1.6246 -2.1732 84 97 69 
-0.090296 -1.5981 -2.1752 87 98 69 
0.6448 -1.6419 -2.1712 70 80 58 
0.45788 -1.6414 -2.1828 83 97 71 
-0.21168 -1.5867 -2.1812 91 106 75 
-0.071769 -1.6016 -2.1751 87 103 76 
-0.23073 -1.5866 -2.1737 81 100 76 
-0.063308 -1.5991 -2.1755 105 128 95 
0.31409 -1.639 -2.181 84 94 66 
0.53348 -1.6401 -2.1723 77 88 64 
0.33722 -1.6355 -2.1813 88 100 71 
-0.01346 -1.6022 -2.1694 92 109 81 
0.36235 -1.6315 -2.1808 86 99 70 
0.0013641 -1.6061 -2.1788 70 81 60 
0.35613 -1.6352 -2.1743 82 94 66 
-0.021591 -1.6128 -2.1631 62 71 53 
0.37084 -1.6356 -2.1747 83 96 69 
0.17744 -1.6369 -2.1766 87 100 71 
0.5555 -1.6327 -2.1696 83 98 71 
0.2101 -1.6419 -2.176 81 93 65 
0.62171 -1.6398 -2.1684 76 87 62 
0.55744 -1.6401 -2.1562 74 85 62 
0.06005 -1.6217 -2.1733 92 106 76 
0.56634 -1.6346 -2.1613 81 96 69 
-0.11108 -1.6033 -2.1591 85 98 69 
-0.10233 -1.602 -2.1609 89 102 73 
0.28247 -1.6409 -2.1737 83 95 68 
0.026618 -1.616 -2.1708 85 96 67 
0.42698 -1.6412 -2.1798 80 91 66 
0.29741 -1.6403 -2.1791 88 101 72 
-0.045404 -1.6014 -2.1669 134 166 125 
0.13749 -1.6226 -2.1847 85 99 72 
0.33134 -1.639 -2.1663 95 106 75 
-0.024502 -1.6035 -2.1642 102 122 91 
0.16008 -1.6312 -2.1787 82 94 68 
0.49254 -1.6442 -2.1753 82 94 67 
-0.20735 -1.5964 -2.1688 90 103 72 
0.37736 -1.64 -2.1695 82 95 68 
0.384 -1.6395 -2.1712 82 95 69 
0.40785 -1.6409 -2.1685 83 94 66 
0.57777 -1.6325 -2.1632 74 87 62 
0.24973 -1.6386 -2.1803 95 110 79 
0.067797 -1.6223 -2.1728 90 104 74 
-0.083857 -1.6051 -2.158 87 100 71 
0.26987 -1.6403 -2.176 81 93 66 
-0.052793 -1.6115 -2.1631 78 94 71 
0.60707 -1.6366 -2.1668 76 87 62 
0.45246 -1.6495 -2.1691 79 90 65 
0.037552 -1.6239 -2.1642 84 95 68 
-0.043765 -1.6074 -2.1616 118 147 114 
-0.03525 -1.6044 -2.1626 136 169 128 
-0.23986 -1.5921 -2.1618 75 91 67 
-0.20158 -1.6032 -2.1587 87 100 72 
0.47183 -1.6461 -2.174 82 95 68 
0.65912 -1.6461 -2.1676 74 85 61 
0.6576 -1.6436 -2.1705 70 80 57 
-0.17504 -1.6029 -2.1615 87 98 69 
0.53867 -1.6436 -2.1636 73 84 60 
-0.031677 -1.6086 -2.1603 105 129 97 
0.19203 -1.6396 -2.1774 86 99 71 
0.63538 -1.645 -2.1654 79 91 64 
-0.13176 -1.6039 -2.1637 95 110 77 
0.22989 -1.6419 -2.1755 82 94 66 
0.24131 -1.6421 -2.1732 87 99 70 
-0.072182 -1.6096 -2.1562 88 102 72 
0.0072149 -1.6205 -2.161 90 103 72 
-0.056395 -1.614 -2.1597 76 88 64 
-0.21739 -1.5986 -2.1629 86 99 70 
0.050221 -1.6361 -2.1493 87 98 69 
-0.071445 -1.6058 -2.1688 80 93 67 
0.08666 -1.6229 -2.1707 93 108 77 
0.30828 -1.6405 -2.1727 89 100 70 
0.10647 -1.6296 -2.1648 90 104 74 
0.31964 -1.6399 -2.1716 86 96 67 
0.11946 -1.6292 -2.1657 93 106 76 
0.14447 -1.6372 -2.1635 79 90 65 
-0.19255 -1.6159 -2.1383 91 103 73 
-0.04064 -1.6161 -2.1588 73 86 65 
-0.021172 -1.6193 -2.1605 69 79 57 
0.64356 -1.6478 -2.1621 78 90 64 
0.38559 -1.6444 -2.1608 90 106 77 
0.39583 -1.6451 -2.1629 83 95 68 
0.24562 -1.6464 -2.1603 86 97 69 
0.57866 -1.6471 -2.1489 72 83 60 
0.59115 -1.6437 -2.1549 75 87 62 
0.67017 -1.6535 -2.152 82 94 67 
0.073121 -1.631 -2.1563 89 101 72 
-0.096053 -1.6083 -2.1509 82 93 67 
0.4952 -1.6549 -2.16 73 84 60 
0.096203 -1.6301 -2.1625 88 102 72 
-0.049186 -1.6162 -2.159 72 83 62 
0.1305 -1.6315 -2.165 99 114 82 
-0.03749 -1.6214 -2.1572 68 76 55 
0.51639 -1.6401 -2.1774 76 86 62 
0.33139 -1.6409 -2.1522 122 148 111 
0.52881 -1.6563 -2.1486 75 87 62 
0.23009 -1.6503 -2.1613 85 97 69 
-0.017741 -1.6234 -2.157 83 95 69 
0.25616 -1.6435 -2.1643 92 107 76 
-0.15862 -1.6099 -2.1497 91 105 74 
0.61074 -1.6441 -2.1592 76 87 61 
-0.13781 -1.6102 -2.1521 107 126 90 
0.40081 -1.6556 -2.1527 92 109 79 
0.29056 -1.6401 -2.1596 91 106 77 
-0.11489 -1.6085 -2.1514 84 95 68 
0.31367 -1.6402 -2.1591 91 104 74 
0.12238 -1.6356 -2.1499 96 112 80 
-0.062264 -1.6161 -2.1483 86 99 70 
0.16812 -1.6453 -2.1584 83 96 69 
0.51898 -1.6599 -2.1476 75 87 64 
0.10648 -1.6346 -2.1453 92 107 76 
0.11348 -1.6364 -2.1411 86 99 71 
0.35711 -1.6407 -2.1596 99 117 84 
0.19943 -1.6533 -2.1577 79 90 63 
0.37768 -1.6458 -2.151 143 182 140 
-0.0012601 -1.6268 -2.1529 87 100 72 
0.55608 -1.6531 -2.1369 78 90 65 
0.56853 -1.6429 -2.1511 73 84 61 
0.25379 -1.6449 -2.1505 96 112 81 
0.41285 -1.6478 -2.1609 81 92 65 
0.27163 -1.6433 -2.1562 102 119 83 
-0.082675 -1.6117 -2.146 79 90 63 
0.083304 -1.6333 -2.1523 89 103 72 
0.63712 -1.6546 -2.137 76 88 64 
0.64594 -1.6514 -2.1493 75 87 63 
0.015977 -1.6254 -2.1559 80 91 64 
-0.24718 -1.6011 -2.1473 82 102 76 
0.098568 -1.6331 -2.1559 91 105 74 
-0.22544 -1.6146 -2.1353 84 97 70 
0.42168 -1.6503 -2.158 74 84 59 
0.28945 -1.6411 -2.1531 124 155 119 
0.47613 -1.6543 -2.1622 84 97 69 
0.36245 -1.6447 -2.1476 150 192 150 
-0.048709 -1.6193 -2.1552 77 87 62 
0.17181 -1.6516 -2.1504 77 88 62 
-0.039054 -1.6253 -2.1517 83 94 67 
0.20756 -1.6559 -2.1557 80 90 64 
0.59811 -1.6511 -2.147 77 89 64 
0.39082 -1.6486 -2.1548 111 138 103 
-0.031118 -1.6239 -2.1561 74 84 60 
0.23609 -1.6526 -2.1552 80 91 65 
0.40541 -1.6581 -2.1501 89 103 73 
-0.16541 -1.616 -2.1389 99 113 79 
0.56389 -1.651 -2.1392 79 91 66 
0.43314 -1.6523 -2.16 76 87 63 
0.44265 -1.6531 -2.1619 81 94 68 
0.042083 -1.6334 -2.1523 84 96 68 
0.60445 -1.653 -2.1428 77 89 64 
-0.12858 -1.6122 -2.1475 117 137 99 
0.61607 -1.6493 -2.151 74 84 59 
-0.1149 -1.6153 -2.1417 97 113 81 
0.28961 -1.6429 -2.1483 157 201 160 
0.62113 -1.653 -2.1378 82 93 67 
0.4712 -1.6648 -2.1476 81 93 66 
-0.090171 -1.6157 -2.14 78 88 63 
0.32023 -1.6428 -2.1472 148 189 149 
-0.066509 -1.6196 -2.1384 88 102 72 
0.54611 -1.6531 -2.1416 75 86 62 
-0.23788 -1.6066 -2.1438 84 99 72 
-0.057789 -1.6195 -2.1455 83 95 67 
0.3428 -1.6439 -2.1473 160 206 163 
0.36361 -1.649 -2.1391 170 222 180 
0.37354 -1.6484 -2.1426 172 224 181 
0.58393 -1.6529 -2.1429 76 88 63 
-0.17683 -1.6191 -2.1344 93 108 76 
0.22544 -1.6611 -2.1469 76 87 63 
0.26996 -1.646 -2.1447 156 199 156 
0.42464 -1.6606 -2.1454 82 94 66 
-0.099634 -1.6197 -2.1365 75 86 61 
0.65928 -1.6548 -2.143 85 98 71 
0.15067 -1.6451 -2.1489 85 97 70 
0.50629 -1.6706 -2.1331 78 91 65 
-0.053887 -1.6296 -2.1311 86 98 69 
-0.2054 -1.6185 -2.1333 81 94 67 
0.13119 -1.6417 -2.1414 93 107 77 
0.38517 -1.6541 -2.1395 165 213 170 
0.19822 -1.6629 -2.1464 78 90 63 
-0.019172 -1.6393 -2.1393 82 93 65 
0.57567 -1.6574 -2.1336 79 91 65 
0.23471 -1.6601 -2.1414 73 83 60 
0.24799 -1.6474 -2.1469 96 116 84 
0.33019 -1.6466 -2.1399 171 224 183 
0.25396 -1.647 -2.1437 131 163 125 
0.45557 -1.6641 -2.1465 80 91 65 
-0.10325 -1.6229 -2.1319 83 95 67 
0.48138 -1.6675 -2.1433 80 92 65 
-0.07991 -1.6183 -2.1368 77 88 63 
0.088618 -1.6358 -2.1414 90 105 75 
0.66829 -1.6602 -2.1321 79 91 65 
-0.033282 -1.636 -2.1392 89 103 73 
0.37924 -1.6574 -2.1315 176 229 187 
0.18316 -1.6553 -2.1499 79 90 64 
0.58506 -1.6606 -2.1297 82 95 69 
-0.13348 -1.6194 -2.135 114 135 97 
0.029273 -1.6414 -2.1405 81 93 66 
0.061794 -1.638 -2.1419 84 95 67 
0.081491 -1.6379 -2.1338 84 98 70 
-0.11901 -1.6219 -2.1294 109 128 91 
-0.10838 -1.6259 -2.124 108 127 90 
0.43799 -1.6647 -2.1398 85 99 71 
0.59715 -1.6616 -2.1249 71 82 59 
-0.070497 -1.6235 -2.131 79 92 66 
0.13896 -1.6493 -2.1357 83 97 70 
-0.059922 -1.6339 -2.12 88 103 73 
0.61652 -1.6572 -2.1294 79 91 66 
0.63419 -1.6571 -2.1305 74 86 63 
0.25934 -1.6546 -2.1299 175 226 183 
0.28495 -1.6542 -2.1304 172 224 181 
-0.0010016 -1.6347 -2.1444 88 100 71 
0.11497 -1.6408 -2.1293 84 98 70 
0.65212 -1.6628 -2.1251 75 86 61 
0.49332 -1.6685 -2.1402 78 90 64 
0.31906 -1.6512 -2.1344 175 229 185 
0.33438 -1.6505 -2.1344 163 211 172 
0.1298 -1.6489 -2.127 80 92 66 
-0.020963 -1.6429 -2.1344 82 93 65 
0.36249 -1.6612 -2.1226 156 203 162 
0.54568 -1.6592 -2.131 73 85 62 
0.40055 -1.6684 -2.1334 81 93 66 
0.38653 -1.6609 -2.1305 151 193 153 
0.057012 -1.6436 -2.1251 78 89 64 
0.56365 -1.6633 -2.124 75 87 62 
0.24424 -1.6543 -2.1347 130 165 128 
0.24959 -1.6544 -2.1313 166 215 172 
0.45295 -1.6738 -2.1231 78 92 67 
0.46031 -1.6677 -2.1411 83 96 69 
0.48479 -1.6722 -2.1342 82 95 67 
0.3007 -1.6514 -2.133 175 228 186 
0.018161 -1.6492 -2.1307 82 95 67 
0.32433 -1.6596 -2.1237 168 219 176 
0.67097 -1.6694 -2.1207 70 80 58 
0.52282 -1.6634 -2.1391 71 81 58 
-0.15314 -1.6261 -2.1237 102 118 84 
0.10121 -1.6394 -2.1253 92 106 77 
0.53223 -1.6643 -2.1304 75 87 62 
0.12405 -1.6438 -2.1295 84 98 70 
-0.014291 -1.6486 -2.1282 91 103 72 
0.54184 -1.6679 -2.1189 74 85 60 
0.032735 -1.6469 -2.1327 84 97 70 
0.39772 -1.6633 -2.1386 93 111 82 
0.41542 -1.6677 -2.1358 81 94 66 
0.14331 -1.6587 -2.1267 80 92 66 
0.22854 -1.6663 -2.1376 73 83 59 
-0.0070924 -1.6482 -2.1309 87 100 71 
-0.23287 -1.6244 -2.1186 88 100 69 
0.46975 -1.6728 -2.1312 84 98 71 
0.50103 -1.6737 -2.1283 79 92 67 
0.51888 -1.673 -2.1186 80 92 66 
0.17133 -1.6632 -2.1378 77 90 65 
-0.11105 -1.6293 -2.1169 110 129 91 
0.18147 -1.6709 -2.135 82 96 69 
-0.036282 -1.6405 -2.1269 83 95 67 
0.19463 -1.6756 -2.1315 86 99 71 
-0.084311 -1.6329 -2.1181 80 94 68 
0.60401 -1.6629 -2.121 72 83 60 
0.43136 -1.6738 -2.1251 86 99 70 
0.069456 -1.643 -2.1216 82 94 67 
0.23779 -1.6638 -2.1246 108 134 101 
0.29536 -1.6584 -2.1236 153 198 157 
0.071971 -1.6408 -2.1266 82 93 67 
0.63266 -1.6647 -2.1189 78 91 66 
-0.24973 -1.6194 -2.1174 84 97 69 
0.10053 -1.6417 -2.119 93 107 78 
0.11149 -1.6447 -2.1195 85 98 71 
0.3709 -1.6703 -2.113 175 225 181 
0.54884 -1.6664 -2.1203 74 86 61 
0.22338 -1.6772 -2.1247 73 82 57 
0.39944 -1.6805 -2.1167 84 96 68 
0.027692 -1.6521 -2.1233 84 98 71 
0.58992 -1.6684 -2.1151 80 91 66 
-0.096719 -1.6321 -2.1146 98 115 82 
0.59897 -1.6702 -2.1122 72 83 59 
0.24346 -1.6609 -2.1235 144 183 143 
0.61728 -1.6669 -2.1156 78 90 64 
0.085906 -1.6459 -2.1122 83 96 69 
0.24992 -1.6685 -2.1115 156 197 151 
0.63227 -1.6685 -2.1149 77 89 64 
0.092587 -1.6471 -2.1096 86 100 71 
0.27464 -1.6643 -2.1173 166 213 169 
0.48858 -1.6777 -2.1185 77 89 64 
0.68383 -1.6792 -2.1107 75 86 61 
0.15817 -1.667 -2.1279 76 88 62 
-0.24743 -1.6294 -2.1083 85 97 69 
-0.011938 -1.6519 -2.1214 91 104 73 
-0.21652 -1.6289 -2.1148 81 94 67 
0.0034926 -1.6543 -2.1219 90 104 73 
0.11775 -1.6522 -2.1126 81 93 67 
0.34404 -1.6756 -2.1019 121 150 113 
0.017399 -1.6549 -2.1206 88 101 72 
-0.16724 -1.6314 -2.1157 94 110 79 
-0.14507 -1.6353 -2.1064 115 136 96 
0.34639 -1.6642 -2.1182 134 168 128 
0.21755 -1.6821 -2.1207 75 86 61 
0.22875 -1.672 -2.1267 70 78 54 
-0.023997 -1.6499 -2.114 91 105 75 
0.38202 -1.6675 -2.1204 167 212 172 
0.39481 -1.6779 -2.1192 89 102 75 
-0.1273 -1.6311 -2.1148 111 128 90 
-0.088389 -1.6382 -2.109 84 97 70 
0.29572 -1.6657 -2.1148 126 156 118 
0.57427 -1.6701 -2.1144 77 89 64 
-0.19447 -1.6271 -2.1195 94 108 77 
-0.065694 -1.6344 -2.1177 87 101 72 
0.61939 -1.6713 -2.1112 73 83 60 
0.10257 -1.6481 -2.11 87 101 73 
-0.050739 -1.6406 -2.1144 86 99 71 
0.50678 -1.6771 -2.1135 75 86 62 
-0.061109 -1.6428 -2.1093 83 96 69 
-0.12909 -1.6389 -2.0978 108 125 87 
0.175 -1.6776 -2.1264 87 102 73 
0.039598 -1.6539 -2.1084 92 107 76 
0.4198 -1.6796 -2.1185 78 90 65 
0.061024 -1.6481 -2.1132 87 102 73 
-0.00016666 -1.6553 -2.1179 91 105 74 
0.66187 -1.6811 -2.109 70 80 57 
0.15824 -1.6813 -2.1153 80 92 65 
0.14685 -1.6729 -2.1145 79 91 65 
0.13262 -1.6629 -2.112 75 85 61 
0.56523 -1.6769 -2.1074 74 85 61 
0.37731 -1.6766 -2.1072 189 232 196 
0.38965 -1.6823 -2.1106 113 134 105 
-0.080533 -1.6425 -2.1072 73 84 61 
0.44457 -1.6766 -2.1177 80 94 67 
0.64975 -1.6829 -2.1053 78 90 65 
-0.036558 -1.6476 -2.1079 88 102 73 
0.18457 -1.6862 -2.1171 84 97 68 
0.19722 -1.6878 -2.114 84 97 69 
-0.18839 -1.6395 -2.1015 86 100 70 
-0.11484 -1.6393 -2.0985 114 134 95 
0.22959 -1.6801 -2.1083 110 134 98 
0.071531 -1.6554 -2.1013 76 87 62 
0.60791 -1.6813 -2.1011 74 86 63 
-0.096599 -1.6389 -2.1001 103 120 85 
-0.24758 -1.6355 -2.0998 84 96 69 
0.32389 -1.6753 -2.1029 113 136 99 
-0.24206 -1.6349 -2.1029 84 95 67 
-0.070801 -1.656 -2.0906 79 91 65 
-0.040104 -1.649 -2.1037 86 99 71 
-0.22184 -1.6386 -2.1002 85 98 69 
0.45576 -1.6816 -2.1065 77 90 65 
-0.18763 -1.6467 -2.0873 91 105 74 
0.53542 -1.6764 -2.1064 75 86 62 
0.58731 -1.6818 -2.0986 80 94 68 
-0.077208 -1.6544 -2.0918 77 89 64 
0.23518 -1.6769 -2.1059 141 175 131 
0.41799 -1.6881 -2.1045 82 97 70 
0.16199 -1.6873 -2.1097 84 96 69 
0.63331 -1.688 -2.0967 77 90 64 
0.11204 -1.6569 -2.0997 85 99 71 
-0.015689 -1.6562 -2.0998 81 93 67 
0.12023 -1.6619 -2.0987 79 91 64 
0.16621 -1.6858 -2.1137 83 95 69 
0.48663 -1.683 -2.1031 74 86 61 
0.2126 -1.6894 -2.112 80 92 66 
0.49857 -1.6841 -2.0981 73 84 61 
0.035147 -1.6607 -2.0927 89 104 74 
0.21779 -1.6903 -2.109 70 79 56 
0.046707 -1.6572 -2.0995 89 103 73 
-0.16041 -1.6415 -2.0976 119 140 98 
0.37529 -1.6861 -2.0932 157 198 157 
0.22406 -1.6826 -2.1151 72 81 57 
0.39608 -1.6903 -2.0996 90 106 75 
0.54209 -1.6825 -2.0998 81 93 66 
0.57743 -1.6875 -2.091 80 93 67 
-0.11774 -1.6443 -2.0877 105 121 87 
0.59783 -1.6886 -2.09 70 79 56 
-0.097125 -1.6479 -2.0822 104 122 88 
-0.08139 -1.6511 -2.0932 81 94 67 
0.15418 -1.6833 -2.1098 82 95 68 
0.46597 -1.6875 -2.0969 79 92 68 
0.17463 -1.6947 -2.1017 90 105 74 
0.47191 -1.6832 -2.1042 77 90 65 
0.67251 -1.6971 -2.0858 78 90 64 
-0.052282 -1.6549 -2.093 87 100 71 
0.10317 -1.6548 -2.0988 89 104 73 
-0.22815 -1.6471 -2.0838 93 107 74 
-0.037694 -1.6553 -2.0904 83 97 70 
-0.20421 -1.646 -2.089 92 103 72 
0.5428 -1.6889 -2.09 81 93 66 
-0.0024807 -1.66 -2.0943 86 99 70 
0.38862 -1.6908 -2.0961 91 109 81 
0.022502 -1.6595 -2.1011 87 99 71 
0.091468 -1.6641 -2.0837 84 98 70 
0.24601 -1.6842 -2.0904 144 183 141 
0.66548 -1.6921 -2.0947 76 88 63 
0.25219 -1.6782 -2.0976 145 184 142 
0.43739 -1.6928 -2.0945 83 97 69 
0.31014 -1.6815 -2.0936 98 114 81 
0.52108 -1.6811 -2.1003 78 90 63 
0.012402 -1.6577 -2.1123 93 107 75 
0.33316 -1.6824 -2.0924 91 107 78 
0.36911 -1.6871 -2.0903 164 209 166 
0.55448 -1.6982 -2.0739 81 93 67 
0.2195 -1.6931 -2.0986 69 79 56 
-0.17715 -1.6493 -2.0842 107 125 88 
0.051204 -1.6685 -2.079 91 106 75 
0.056125 -1.6663 -2.0845 84 96 68 
-0.15026 -1.6478 -2.0841 105 122 86 
-0.12771 -1.6494 -2.0798 98 111 78 
0.072761 -1.6652 -2.0859 90 103 73 
0.2411 -1.6799 -2.0967 145 183 140 
0.63761 -1.694 -2.0884 77 90 64 
0.1593 -1.696 -2.0924 87 100 71 
0.27128 -1.6824 -2.0932 161 206 160 
0.28054 -1.6781 -2.0991 153 195 152 
-0.069489 -1.6612 -2.0814 84 96 68 
0.10874 -1.6677 -2.081 83 96 68 
-0.24032 -1.6506 -2.076 99 117 83 
0.50255 -1.6901 -2.0878 77 88 64 
0.19201 -1.696 -2.1009 86 99 70 
0.21354 -1.6945 -2.1029 74 83 58 
0.56408 -1.6899 -2.0876 73 84 61 
0.14494 -1.6874 -2.0923 73 85 61 
0.15176 -1.6948 -2.0866 83 97 69 
0.6521 -1.6997 -2.0797 78 90 65 
-0.040915 -1.6613 -2.0809 75 86 61 
-0.019979 -1.6614 -2.0814 86 99 71 
0.34805 -1.6913 -2.0834 135 171 132 
0.38301 -1.697 -2.0855 92 110 83 
0.017034 -1.6636 -2.0833 83 95 67 
0.034161 -1.6649 -2.0815 86 98 70 
0.52801 -1.6908 -2.0869 78 92 65 
-0.16431 -1.6517 -2.0795 105 122 87 
0.22578 -1.6889 -2.0922 113 140 104 
-0.090808 -1.6483 -2.0853 110 129 94 
-0.077722 -1.6623 -2.0765 89 103 73 
0.45648 -1.6984 -2.0837 84 98 70 
-0.069387 -1.6665 -2.0747 85 98 69 
0.13828 -1.6909 -2.0748 75 87 62 
0.47616 -1.6914 -2.0885 80 93 67 
0.1023 -1.6728 -2.0706 82 96 68 
-0.042341 -1.6661 -2.0763 71 81 57 
0.67629 -1.7113 -2.0629 72 83 60 
0.51311 -1.7006 -2.0754 78 90 65 
0.098196 -1.6687 -2.0752 81 94 67 
-0.22202 -1.6546 -2.0683 82 94 66 
0.32641 -1.6924 -2.0767 81 94 68 
0.33875 -1.6899 -2.0829 94 112 82 
0.12684 -1.6773 -2.0834 74 86 61 
0.55302 -1.7044 -2.0655 78 89 64 
0.57819 -1.6981 -2.069 79 91 65 
-0.17203 -1.6541 -2.0751 100 116 82 
0.59336 -1.6962 -2.0761 83 98 71 
0.0070268 -1.6661 -2.0754 92 107 75 
0.23041 -1.6866 -2.0901 136 170 128 
0.39311 -1.7022 -2.0809 87 102 73 
-0.13908 -1.6541 -2.071 98 114 81 
0.408 -1.6984 -2.0865 89 103 74 
0.062866 -1.6698 -2.0776 91 106 75 
0.428 -1.6983 -2.0876 85 97 69 
0.073335 -1.6737 -2.0639 84 96 69 
0.08633 -1.6684 -2.0759 90 103 72 
0.2562 -1.6938 -2.0785 147 190 150 
0.27086 -1.6957 -2.077 148 190 148 
-0.023869 -1.665 -2.0754 79 89 63 
-0.010074 -1.6658 -2.0744 82 95 67 
-0.20342 -1.6548 -2.0713 94 107 74 
-0.18846 -1.655 -2.0716 100 115 82 
0.56635 -1.6959 -2.0745 78 90 65 
-0.14888 -1.6588 -2.0635 94 107 76 
-0.12354 -1.661 -2.0577 93 107 75 
-0.10774 -1.6531 -2.0721 100 115 81 
0.18275 -1.7007 -2.0923 88 101 70 
0.37898 -1.7076 -2.0743 86 102 75 
0.047286 -1.6724 -2.0682 88 103 73 
0.20788 -1.7043 -2.0864 80 92 67 
-0.085768 -1.6625 -2.0667 100 119 86 
0.62765 -1.702 -2.0732 81 94 68 
0.21241 -1.7057 -2.0819 77 89 64 
0.44277 -1.7026 -2.0799 85 100 71 
0.1641 -1.701 -2.0863 86 99 70 
-0.093446 -1.6598 -2.064 98 114 82 
0.49271 -1.7045 -2.0691 80 93 67 
-0.052551 -1.6755 -2.0702 72 81 58 
-0.03745 -1.6772 -2.0694 72 81 58 
0.15204 -1.7003 -2.0741 83 96 69 
0.29369 -1.695 -2.0757 92 106 76 
-0.029725 -1.6712 -2.0716 72 82 58 
0.36232 -1.6951 -2.0803 167 216 172 
-0.012852 -1.6721 -2.0677 78 89 63 
0.19166 -1.7063 -2.0815 81 93 67 
-0.10596 -1.6599 -2.0603 98 114 82 
0.5693 -1.6997 -2.0672 82 94 68 
0.38426 -1.7079 -2.0748 83 96 68 
0.61057 -1.7021 -2.0702 78 89 64 
-0.068158 -1.6764 -2.0674 73 83 59 
0.23099 -1.7007 -2.0649 82 94 68 
0.064334 -1.6751 -2.059 82 94 67 
0.26718 -1.7078 -2.0605 99 119 88 
0.12034 -1.6805 -2.0709 78 90 64 
0.63717 -1.7105 -2.06 80 94 68 
0.46926 -1.7017 -2.0764 83 94 67 
0.1672 -1.7072 -2.0717 84 97 68 
-0.25132 -1.6536 -2.0664 86 98 70 
-0.23245 -1.6584 -2.0605 90 104 74 
-0.18127 -1.6587 -2.0638 96 110 78 
0.012576 -1.674 -2.0618 84 98 70 
0.17294 -1.7044 -2.0831 88 101 71 
0.035419 -1.6778 -2.056 92 107 76 
